# .PCD v0.7 - Point Cloud Data file format
VERSION 0.7
FIELDS x y z normal_x normal_y normal_z curvature
SIZE 4 4 4 4 4 4 4
TYPE F F F F F F F
COUNT 1 1 1 1 1 1 1
WIDTH 584
HEIGHT 1
VIEWPOINT 0 0 0 1 0 0 0
POINTS 584
DATA ascii
-0.043896291 0.3952696 -0.083333321 6.0910311e-06 -3.4877114e-05 1 0
-0.036430284 0.39552194 -0.083333328 1.0849876e-05 -5.6438264e-05 1 0
-0.025826208 0.39479971 -0.083333321 9.3206893e-07 -3.6035795e-05 1 0
-0.016406637 0.39494994 -0.083333321 4.8194405e-08 1.6930504e-05 1 0
-0.0047976817 0.39461178 -0.083333321 -3.5667577e-07 -1.5601781e-05 1 0
0.0058878115 0.39604849 -0.083333321 -2.3522064e-06 -1.6663576e-05 1 0
0.015413592 0.39604026 -0.083333328 -2.6085638e-06 -1.7313816e-05 1 0
0.023286307 0.39274216 -0.083333321 -0 -0 1 0
0.036180791 0.39498347 -0.083333321 -1.7005943e-06 -1.5359681e-05 1 0
0.044978667 0.39446825 -0.083333328 -9.989044e-07 5.4375729e-08 1 0
0.0544976 0.39815193 -0.083333328 -6.3324283e-06 -1.7428079e-05 1 0
0.066477761 0.39547053 -0.083333321 -2.9134512e-06 -1.9411054e-05 1 0
0.073823169 0.39689755 -0.083333328 -3.9057133e-07 1.6470149e-05 1 0
0.086900577 0.39573613 -0.083333328 -0.024463385 0.00037596683 0.99970067 0.00060279079
0.094091028 0.39556444 -0.083333321 -0.061667386 0.0012500217 0.99809593 0.0022850875
0.10619184 0.39562976 -0.083267026 -0.19928834 0.0061637512 0.97992152 0.0060738418
0.11392236 0.39399689 -0.080919273 -0.29705727 -0.011611953 0.95478904 0.0055946582
-0.24588425 0.40350574 -0.081552975 0.66853809 0.14875773 0.72864801 0.082900874
-0.23501185 0.40610582 -0.081942968 0.21048623 0.13119473 0.96875358 0.037241593
-0.22420348 0.405101 -0.081810683 0.041704003 0.13093948 0.99051279 0.0064028986
-0.21460129 0.40607455 -0.081938863 -0.0036164587 0.10628169 0.99432945 0.0040858113
-0.2053429 0.40546602 -0.081858739 -0.0073489039 0.12168279 0.99254185 0.0038225593
-0.19462976 0.40419105 -0.081690893 -0.0031679838 0.16234335 0.98672926 0.004009007
-0.18526226 0.40457386 -0.081741303 -0.00040078437 0.1531741 0.98819917 0.0038623011
-0.17354226 0.40652934 -0.081998736 0.0035260369 0.11784481 0.99302578 0.0037986625
-0.16485509 0.40375325 -0.081633247 -0.015878249 0.1472068 0.98897827 0.0037544754
-0.15475646 0.40413365 -0.081683338 0.0088552367 0.14861563 0.98885536 0.0046572057
-0.14780644 0.40700638 -0.082061529 0.0001401691 0.10227504 0.99475616 0.0035429173
-0.13315398 0.40412936 -0.081682764 0.045209166 0.11539276 0.99229062 0.0047376887
-0.12487692 0.4047668 -0.081766687 0.056578711 0.095805869 0.99379075 0.0047869729
-0.11470147 0.40412071 -0.083064266 0.07665585 0.064916827 0.99494207 0.0041143931
-0.10546787 0.40536401 -0.083333321 0.056884214 0.039482389 0.99759978 0.0033881445
-0.094483726 0.4040677 -0.083333321 0.0069063767 0.0016792784 0.99997473 5.6652407e-05
-0.085177913 0.40471965 -0.083333321 0.0010666968 -6.4235537e-05 0.9999994 4.2877664e-06
-0.072649442 0.40476081 -0.083333328 7.0565602e-06 -1.5578926e-05 1 0
-0.066523388 0.40411994 -0.083333321 4.3552413e-06 -5.2242867e-05 1 0
-0.055532999 0.40414247 -0.083333321 3.636354e-06 -5.3688233e-05 1 0
-0.043919396 0.40532634 -0.083333321 4.6542741e-06 -4.0826726e-05 1 0
-0.03547705 0.40673488 -0.083333321 5.4843559e-07 -1.676254e-05 1 0
-0.022958169 0.40708143 -0.083333328 -1.6634439e-06 -3.485745e-05 1 0
-0.013384026 0.40729088 -0.083333321 -2.559143e-06 -3.4933724e-05 1 0
-0.0045486805 0.40438512 -0.083333321 0 0 1 0
0.0040197233 0.404998 -0.083333328 -3.8167792e-07 -1.1487092e-08 1 1.0721039e-06
0.014521694 0.40495065 -0.083333321 -3.785211e-06 -1.665424e-05 1 0
0.024328433 0.40316427 -0.083333321 2.1463804e-06 9.7507638e-08 1 0
0.033105563 0.40634075 -0.083333328 2.9246887e-06 -3.83634e-05 1 0
0.047138948 0.40449646 -0.083333321 -3.8280959e-06 -1.9066487e-05 1 0
0.055291798 0.4034667 -0.083333321 -1.0027317e-05 -3.4217657e-05 1 0
0.065768704 0.40479645 -0.083333321 -4.4593658e-06 1.8361285e-05 1 1.0086827e-06
0.074188873 0.40460512 -0.083333328 -2.3058219e-06 -1.558035e-05 1 1.0759036e-06
0.084785692 0.40424651 -0.083333321 -0.0068325051 -0.00029723125 0.99997658 0.00014691765
0.093738236 0.40541941 -0.083333321 -0.064339347 0.0017863896 0.99792653 0.0022529662
0.10497987 0.40437186 -0.083306 -0.17972052 -0.001926753 0.98371583 0.0050926805
0.11193989 0.40639615 -0.081855342 -0.23455606 0.012127033 0.97202694 0.006203033
-0.24558434 0.41394836 -0.08257924 0.65246797 0.039328784 0.75679505 0.07919021
-0.23522654 0.41568613 -0.083077259 0.22262137 -0.005967184 0.97488678 0.035795171
-0.22506253 0.41472435 -0.082990728 0.056485366 0.012488959 0.99832529 0.0075775865
-0.21397126 0.41471234 -0.083019055 0.0011651207 0.037617572 0.99929148 0.0038320445
-0.2059765 0.41571522 -0.082968384 -0.01332626 0.001075045 0.99991065 0.0035839877
-0.19477692 0.41402084 -0.082889907 0.015456817 0.036496673 0.99921417 0.0038027542
-0.18472862 0.412646 -0.082804002 -0.0041688392 0.044901568 0.99898273 0.0034810493
-0.17523451 0.41385722 -0.082836546 0.011412107 0.039446045 0.99915648 0.0032833198
-0.16547349 0.41392416 -0.082917482 -0.0095512196 0.035493519 0.99932426 0.0035726696
-0.15520738 0.41658208 -0.083140306 -0.011267432 -0.0017524031 0.99993503 0.0032808208
-0.14632301 0.41649526 -0.082920931 -0.0063255513 0.0058393772 0.99996299 0.003215424
-0.13430342 0.41303238 -0.082802951 0.033787839 0.037317723 0.99873209 0.003730996
-0.12511997 0.41643777 -0.083040603 0.052395068 -0.022484394 0.99837339 0.0040455223
-0.11678302 0.41317424 -0.083332002 0.055330105 0.0098590292 0.99841946 0.0032240476
-0.10406788 0.41423896 -0.083333321 0.037896156 -0.010561734 0.99922585 0.0011110728
-0.094984464 0.41686258 -0.083333328 0.0054585058 -0.0012418192 0.99998432 4.1041716e-05
-0.084509492 0.41451466 -0.083333321 -2.1462758e-06 -1.1591833e-07 1 0
-0.074854344 0.41590902 -0.083333321 3.909111e-06 9.7629442e-09 1 0
-0.063417263 0.41335505 -0.083333321 2.8393158e-06 -1.6979187e-05 1 0
-0.057012241 0.41309696 -0.083333321 3.7480254e-06 -1.5696125e-05 1 0
-0.045316044 0.41485262 -0.083333321 2.975908e-06 1.5598738e-05 1 0
-0.035551373 0.41509941 -0.083333321 1.9778049e-06 -8.3749761e-08 1 0
-0.025018567 0.41453055 -0.083333321 4.5211114e-06 -1.5433516e-05 1 0
-0.014892098 0.41536593 -0.083333328 4.6306545e-07 -1.6115242e-05 1 0
-0.0065059229 0.4138279 -0.083333328 0 0 1 2.0539876e-06
0.0050249058 0.41576913 -0.083333321 -1.3416069e-07 -1.6587366e-05 1 3.8366575e-06
0.014642833 0.41440451 -0.083333321 -1.0215531e-06 4.3205063e-08 1 0
0.02398115 0.41485617 -0.083333321 -1.0926916e-06 -9.2955354e-08 1 0
0.034636848 0.41631851 -0.083333321 1.3160897e-06 3.7296653e-05 1 0
0.044806477 0.41501793 -0.083333321 -3.8204048e-06 -3.1683441e-05 1 0
0.054823175 0.41364354 -0.083333321 -9.3152261e-07 -1.587736e-05 1 0
0.064447649 0.41678753 -0.083333328 -5.211572e-06 1.7249857e-05 1 0
0.075539753 0.41522628 -0.083333328 -0.00035166196 2.1902461e-05 0.99999994 0
0.084981635 0.41719356 -0.083333328 -0.022039175 0.0029775598 0.9997527 0.0004706872
0.0927094 0.41442618 -0.083333321 -0.059804402 -0.0022606086 0.99820757 0.002192863
0.1050584 0.4151257 -0.08325579 -0.17855531 0.026603835 0.98357016 0.0060486156
0.11355564 0.41507742 -0.081092417 -0.27903759 -0.0012083033 0.96027941 0.0064727929
-0.24485917 0.42220411 -0.082604297 0.4776729 -0.084384523 0.87447578 0.068711974
-0.23462582 0.42490712 -0.082248434 0.22948265 -0.11027338 0.96704572 0.037848838
-0.22475642 0.42625588 -0.082070872 0.060541462 -0.12257044 0.99061149 0.0079059321
-0.21606831 0.42618245 -0.082080543 0.00162767 -0.093990713 0.99557173 0.004610098
-0.20570263 0.42593256 -0.082113445 -0.006689514 -0.077896781 0.99693894 0.0034679933
-0.19638571 0.4266994 -0.082012489 -0.0027747124 -0.11171464 0.99373651 0.0044509959
-0.18457523 0.42567721 -0.082147062 0.0076126517 -0.070074864 0.9975127 0.0035102742
-0.1739278 0.42536792 -0.082187787 0.016949926 -0.084043123 0.99631798 0.0032114289
-0.16511466 0.42446327 -0.082306877 0.0027267707 -0.07196591 0.99740338 0.00445324
-0.15663607 0.4257395 -0.082138859 -0.0023887723 -0.091894157 0.99576586 0.0033993106
-0.1454391 0.42532611 -0.082193278 -0.00086102897 -0.075775862 0.99712455 0.003167927
-0.13378927 0.42446017 -0.082307287 0.020791914 -0.053732127 0.99833894 0.0037498407
-0.12509586 0.42501494 -0.082234263 0.057001632 -0.055097636 0.99685258 0.0039237137
-0.1153226 0.42497474 -0.083085701 0.071896113 -0.037910029 0.99669147 0.0028014486
-0.1061734 0.42369017 -0.083333321 0.053513139 -0.034774184 0.99796146 0.0027955044
-0.094327837 0.42501709 -0.083333321 0.020406954 -0.01069476 0.99973458 0.00073262473
-0.085006364 0.42435122 -0.083333321 1.1066628e-05 4.2418964e-07 1 0
-0.074232154 0.42497954 -0.083333321 5.1020738e-06 -1.6893191e-05 1 0
-0.063784309 0.42635229 -0.083333321 6.3023426e-06 -4.7046404e-05 1 0
-0.056109495 0.42396501 -0.083333321 2.146513e-06 -2.5358791e-09 1 0
-0.043920156 0.42552841 -0.083333321 1.0990844e-06 7.1185113e-08 1 0
-0.034969535 0.42444208 -0.083333321 2.1672199e-06 1.0433421e-07 1 0
-0.023333013 0.42531872 -0.083333321 -1.0472025e-06 -2.0700574e-05 1 0
-0.015734432 0.42688578 -0.083333321 1.1916509e-06 -1.5981377e-05 1 0
-0.0042176978 0.4240303 -0.083333321 2.0179552e-07 2.0653591e-08 1 0
0.0063474388 0.42404771 -0.083333328 8.1723744e-07 1.6870343e-05 1 0
0.015134259 0.42615786 -0.083333321 -7.4209538e-08 -2.9987066e-05 1 0
0.024067014 0.42530897 -0.083333321 1.356197e-06 -1.931234e-05 1 0
0.037839968 0.42532656 -0.083333328 -5.8598852e-07 -1.8845016e-05 1 0
0.045697235 0.42302412 -0.083333328 0 0 1 0
0.05513877 0.42350626 -0.083333321 -4.3628802e-06 -3.4997822e-05 1 0
0.067647435 0.42598042 -0.083333321 -1.8281282e-06 1.6604876e-05 1 4.8698334e-06
0.074764714 0.4264043 -0.083333328 -4.7819653e-06 -1.7330825e-05 1 0
0.085502416 0.42502999 -0.083333321 -0.022534495 0.00021650907 0.99974602 0.00062654878
0.094321221 0.42551601 -0.083333321 -0.068546407 -0.0023601837 0.9976452 0.0023589896
0.10300636 0.42665353 -0.083333321 -0.13800456 0.0067597111 0.99040854 0.0053123757
0.11282239 0.42458782 -0.081438646 -0.26885822 0.0030046834 0.96317512 0.0063243182
-0.24634591 0.4343504 -0.081005216 0.58489949 -0.18147509 0.79054374 0.060474496
-0.23533221 0.43492731 -0.08087454 0.33705992 -0.19790041 0.92044884 0.046168469
-0.22462954 0.43647513 -0.080637753 0.081951655 -0.24893506 0.9650467 0.013433034
-0.21472037 0.43572956 -0.080799088 0.0038094781 -0.23109446 0.97292382 0.0048197089
-0.20344913 0.4333362 -0.08113201 0.0014723255 -0.20200296 0.97938383 0.0057529188
-0.19362982 0.43447477 -0.080959037 0.0031356965 -0.24534877 0.96942979 0.0042181085
-0.18449941 0.4346399 -0.080967098 0.013799191 -0.23975733 0.97073478 0.0039404118
-0.17311181 0.43531534 -0.080821976 -0.00054279319 -0.21052846 0.97758758 0.0040159603
-0.16496643 0.43548018 -0.080842115 -0.012114652 -0.24743548 0.96882862 0.0035193453
-0.15526056 0.43359816 -0.081104249 -0.0068866541 -0.19770578 0.98023725 0.0059183426
-0.14520332 0.43583792 -0.080793545 0.015981687 -0.24183321 0.97018623 0.005421354
-0.13411547 0.43471518 -0.080957189 0.049677011 -0.21873489 0.97451901 0.008714824
-0.12462705 0.43534157 -0.080829136 0.098193482 -0.16497308 0.98139793 0.009530412
-0.11697672 0.43567488 -0.08255621 0.10262989 -0.10052443 0.98962718 0.010604157
-0.10405312 0.43597645 -0.083333328 0.076230928 -0.043965928 0.99612033 0.0060675717
-0.095470302 0.43494892 -0.083333321 0.046578679 -0.010407373 0.99886036 0.0022174509
-0.087079279 0.43416741 -0.083333321 0.0049626767 -3.3935892e-05 0.99998766 3.5978395e-05
-0.074645162 0.43347412 -0.083333328 2.4972617e-06 1.7264731e-05 1 0
-0.065913983 0.43480799 -0.083333321 5.9125537e-06 -3.7206919e-05 1 0
-0.053015731 0.43503249 -0.083333321 1.0723098e-05 -4.1628704e-05 1 0
-0.047011264 0.43710536 -0.083333328 4.0726995e-06 -3.6039491e-08 1 0
-0.034551594 0.43473938 -0.083333321 6.0391068e-07 -1.6479145e-05 1 0
-0.024649449 0.43460479 -0.083333321 -2.5090051e-06 -3.0947191e-05 1 0
-0.014149889 0.43610185 -0.083333321 5.2292546e-07 -1.1459152e-08 1 0
-0.0054193181 0.43643895 -0.083333321 -3.1261078e-07 -3.2882588e-05 1 0
0.0041962722 0.43260956 -0.083333321 -1.3260835e-07 -2.0804001e-11 1 0
0.01505928 0.43389747 -0.083333328 -3.2436481e-06 -5.1530358e-05 1 0
0.025680229 0.4356156 -0.083333328 -3.2944313e-06 -3.2847125e-05 1 0
0.035306998 0.43437725 -0.083333321 6.1361625e-08 -1.7497741e-05 1 0
0.047000397 0.43453223 -0.083333321 -5.2994824e-06 -2.1599322e-05 1 0
0.058153387 0.43386856 -0.083333328 8.0685288e-07 -2.0431557e-05 1 0
0.065601625 0.43514261 -0.083333321 -2.2609431e-06 1.5380616e-07 1 0
0.074597493 0.43386489 -0.083333321 -8.7330218e-06 -5.9201346e-05 1 0
0.083373792 0.43586949 -0.083333321 -0.00073222769 -0.00028190474 0.99999976 0
0.095668621 0.4341476 -0.083333321 -0.067646734 0.0048823929 0.99769741 0.0020152249
0.10505228 0.43489662 -0.083297677 -0.17196746 0.0094378274 0.98505741 0.0048369886
0.11335262 0.43325299 -0.081188284 -0.2912955 -0.0015708579 0.95663184 0.0061002066
-0.11519305 0.44572473 -0.082477219 0.20833503 -0.15255871 0.96608609 0.02665364
-0.10461918 0.44467303 -0.083333321 0.12017538 -0.052665964 0.9913547 0.0098540252
-0.094966143 0.44475776 -0.083333321 0.061895352 -0.0092581781 0.99803972 0.0051127975
-0.085126907 0.4450725 -0.083333321 6.3723355e-06 -5.066477e-05 1 0
-0.075455107 0.44555739 -0.083333321 6.3207635e-06 -2.8640616e-05 1 0
-0.065553926 0.44520202 -0.083333321 5.1135594e-06 -6.86407e-05 1 0
-0.054871596 0.44337317 -0.083333321 1.5047408e-05 -9.6321375e-05 1 0
-0.044543806 0.44475994 -0.083333328 5.5078954e-06 -4.4083605e-05 1 0
-0.034237716 0.44490767 -0.083333321 2.3601983e-06 -1.585718e-05 1 0
-0.024646377 0.44477579 -0.083333321 -1.0096571e-06 5.5664891e-08 1 0
-0.014175573 0.4466508 -0.083333321 -6.2838882e-07 -1.7655142e-05 1 0
-0.0073439023 0.44397241 -0.083333321 1.3525631e-06 1.8134047e-05 1 0
0.0032870641 0.44759288 -0.083333321 -6.7900885e-08 -1.0083947e-09 1 0
0.014455236 0.44362164 -0.083333321 -1.1552175e-06 -3.5486399e-05 1 0
0.024084875 0.44595242 -0.083333321 -2.1128462e-06 6.0728624e-08 1 0
0.034824517 0.44427815 -0.083333321 -3.0502458e-06 -5.0416649e-05 1 0
0.045901455 0.44470727 -0.083333321 -3.4940399e-07 -1.6709695e-05 1 0
0.055927418 0.44383883 -0.083333321 2.3742984e-06 3.4889094e-05 1 1.0578219e-06
0.063089356 0.4452861 -0.083333321 -4.4053495e-06 5.4089759e-07 1 0
0.075375922 0.44368923 -0.083333328 -0.00023036585 5.6535409e-06 1 2.8776858e-06
0.085519351 0.44617173 -0.083333321 -0.015673058 -0.0014923865 0.99987602 0.00041802789
0.096208572 0.44485959 -0.083333321 -0.094831012 0.0052763075 0.9954794 0.0034045842
0.1052127 0.44442886 -0.083275601 -0.15938045 -0.0022195238 0.98721474 0.0054000434
0.11340393 0.44328165 -0.081164062 -0.30497929 -0.010350354 0.95230275 0.0051150452
-0.11457147 0.45214614 -0.08278963 0.267019 -0.17856628 0.94700319 0.028655963
-0.10581598 0.45475593 -0.083333321 0.19641519 -0.070749216 0.97796506 0.027506314
-0.09481433 0.4555524 -0.083333321 0.070450462 0.0035974821 0.99750882 0.0068650548
-0.084718063 0.45469314 -0.083333321 0.0024361066 -0.0064216945 0.99997646 0.00014513754
-0.075882398 0.45659605 -0.083333328 1.0704575e-05 -0.010380124 0.99994612 0.00016987264
-0.065162964 0.45597634 -0.083333328 -0.00023187492 -0.006219856 0.99998069 7.2568757e-05
-0.056011308 0.4551726 -0.083333321 0.00083899056 -0.0051914616 0.99998617 6.9420959e-05
-0.044452164 0.45426962 -0.083333321 -3.9830305e-05 -0.0024262043 0.99999708 1.9408255e-05
-0.035555005 0.45575553 -0.083333321 -0.00092846813 -0.0095064398 0.99995434 0.0001953629
-0.023750965 0.45660654 -0.083333321 0.0016495612 -0.011766113 0.99992943 0.00020445851
-0.014449038 0.45532903 -0.083333321 -0.00028199895 -0.0084322728 0.99996442 0.00011569165
-0.0046209991 0.45415562 -0.083333321 0.00038179979 -0.0049369726 0.99998778 8.2393606e-05
0.0045275027 0.4560155 -0.083333321 0.0011945332 -0.0077485605 0.9999693 0.00010623691
0.014082217 0.45579904 -0.083333321 0.00011720142 -0.0091233412 0.9999584 0.00015428146
0.024200568 0.45373562 -0.083333321 0.00020075976 -0.0017806286 0.99999833 1.2093831e-05
0.033167943 0.45430651 -0.083333328 0.00021698223 -0.005075722 0.99998707 6.5828637e-05
0.045366455 0.45575494 -0.083333328 0.00111412 -0.0052153994 0.99998575 5.8366051e-05
0.053118441 0.45739982 -0.083333321 -0.00089894357 -0.0047419262 0.99998832 3.9704861e-05
0.066567607 0.4557806 -0.083333321 0.00080745493 -0.0060651517 0.99998128 5.7548954e-05
0.075709015 0.45560879 -0.083333321 0.00058527227 -0.0065819263 0.99997813 6.3144347e-05
0.085610472 0.45515516 -0.083333321 -0.014942205 -0.0041323924 0.99987984 0.00036394666
0.095775977 0.45584893 -0.083333328 -0.071065426 -0.0043141274 0.99746233 0.0021733176
0.10461135 0.45559028 -0.083239079 -0.14700428 -0.0062174601 0.98911631 0.0049002632
0.11273674 0.45410049 -0.08147908 -0.28352404 0.0016275406 0.95896375 0.005954369
-0.11447735 0.46487623 -0.083313875 0.43208361 -0.17630164 0.88443285 0.036066953
-0.10380238 0.46528646 -0.083333321 0.23835747 -0.058401018 0.96941996 0.036348645
-0.095880918 0.46573475 -0.083333321 0.12436101 -0.079763308 0.98902583 0.022071654
-0.083787099 0.46528521 -0.083333321 -0.0087646348 -0.068552382 0.99760902 0.0034080718
-0.07658492 0.46429735 -0.083333328 -0.0035011566 -0.074445777 0.99721891 0.0040097348
-0.063775972 0.46545941 -0.083333321 0.011865608 -0.092921279 0.99560279 0.0064015067
-0.05400037 0.46620038 -0.083333321 -0.0094212312 -0.064383753 0.99788076 0.0032347015
-0.043712992 0.46407828 -0.083333321 0.0075119124 -0.055201534 0.998447 0.0028624625
-0.0363313 0.46550623 -0.083333328 -0.00061847671 -0.062308561 0.99805677 0.0032454845
-0.026236624 0.46478626 -0.083333321 -0.010478306 -0.062626652 0.99798197 0.0031933624
-0.014693346 0.46511313 -0.083333321 0.0022781629 -0.088606067 0.99606413 0.0067239194
-0.006748985 0.46602154 -0.083333321 -0.00091165042 -0.088794962 0.99604946 0.0069793505
0.0049243434 0.46465778 -0.083333321 0.0068504461 -0.066753887 0.99774599 0.0036629466
0.014467409 0.46509513 -0.083333321 -0.011074135 -0.093370348 0.99556988 0.0074204258
0.02476823 0.46497259 -0.083333328 0.0023034234 -0.061060593 0.99813139 0.0039674719
0.036238585 0.46441317 -0.083333321 0.00383194 -0.070869707 0.99747819 0.0048066103
0.045779586 0.46541765 -0.083333321 -0.0025976703 -0.06459213 0.99790841 0.0046106256
0.055146653 0.46570352 -0.083333336 0.0010306312 -0.11662918 0.99317491 0.009312544
0.06441693 0.46441761 -0.083333321 -0.0046222592 -0.083287157 0.99651486 0.0071060872
0.076321408 0.46474591 -0.083333328 -0.0081157899 -0.099710196 0.99498343 0.0079603568
0.084441915 0.46458504 -0.083333321 -0.010318846 -0.09381596 0.99553609 0.0072358553
0.095218882 0.46376443 -0.083333328 -0.052157529 -0.063985586 0.99658686 0.0060262498
0.10481621 0.46409446 -0.083254874 -0.1607057 -0.037774704 0.98627919 0.0066359066
0.11266219 0.46599638 -0.081514291 -0.27341083 -0.068615444 0.95944697 0.0088785756
-0.11423624 0.47562748 -0.083094716 0.51094306 -0.26242387 0.81857872 0.047299702
-0.10378838 0.47695222 -0.083333328 0.25765353 -0.24939407 0.93349731 0.050534334
-0.095214374 0.47425929 -0.083333321 0.13100247 -0.2324075 0.96375573 0.035824239
-0.084048957 0.47542417 -0.083333321 0.0095498348 -0.30049598 0.95373535 0.020951377
-0.074232332 0.47455105 -0.083333321 -0.0091411145 -0.23293328 0.97244972 0.01905765
-0.065932095 0.47384426 -0.083333321 -0.0046245689 -0.22279041 0.97485542 0.018846259
-0.053630851 0.47450775 -0.083333321 0.0053407447 -0.26233983 0.96496069 0.016707752
-0.046204716 0.47436991 -0.083333321 -0.010758089 -0.26047263 0.96542132 0.019833157
-0.034925334 0.47429284 -0.083333321 -0.00034322208 -0.24447678 0.96965504 0.018828284
-0.023786552 0.47459653 -0.083333321 -0.010907118 -0.2327655 0.97247171 0.018101564
-0.017546507 0.47553468 -0.083333321 -0.0081560742 -0.24414961 0.96970326 0.018797372
-0.0043890476 0.47544947 -0.083333328 0.0091041327 -0.25555485 0.96675169 0.019660348
0.0042564813 0.47747016 -0.083333321 -0.013450785 -0.28443629 0.95860052 0.021784412
0.015940515 0.47535536 -0.083333321 0.011716187 -0.25337702 0.96729672 0.017253475
0.026329232 0.47526911 -0.083333321 0.01295676 -0.22270972 0.97479874 0.018047525
0.03570313 0.47499698 -0.083333321 0.016679596 -0.29059383 0.9567011 0.021280492
0.043378819 0.47565243 -0.083333321 0.0025582011 -0.28758502 0.95775169 0.019459205
0.054343827 0.47404087 -0.083333321 -0.030621126 -0.26058829 0.96496427 0.017365254
0.066248961 0.47475886 -0.083333321 0.018574437 -0.24341625 0.96974409 0.017965581
0.076063335 0.47563598 -0.083333321 0.00084121927 -0.28339779 0.95900202 0.019523233
0.086026192 0.47408736 -0.083333328 0.020295223 -0.22044253 0.97518879 0.01733629
0.09600912 0.47517046 -0.083333328 -0.075891003 -0.24269657 0.96712923 0.017228791
0.10612629 0.47621667 -0.083315931 -0.17602152 -0.22285731 0.95882797 0.019572819
0.11191704 0.47763443 -0.08186613 -0.24010201 -0.27496856 0.93099046 0.020419268
-0.11517638 0.48370862 -0.082298964 0.59922618 -0.37179905 0.70900887 0.059876144
-0.10730857 0.48225531 -0.083333328 0.30445135 -0.33717081 0.89085644 0.057675902
-0.095680997 0.48354334 -0.082375593 0.10357726 -0.43339175 0.89523369 0.033863552
-0.084230743 0.48386812 -0.081920065 0.0200177 -0.42094293 0.90686625 0.027103692
-0.073199742 0.48373616 -0.082930416 0.018675825 -0.45357132 0.89102423 0.030221466
-0.064697668 0.48336968 -0.08228977 -0.0020423401 -0.40408346 0.91471988 0.028640753
-0.056649607 0.48310119 -0.082954749 -0.027067885 -0.42863518 0.90307206 0.027355099
-0.044465285 0.48314488 -0.082775891 -0.0045187199 -0.43180272 0.90195674 0.027980974
-0.033324324 0.48460379 -0.081602663 -0.0012345038 -0.44167706 0.89717329 0.027909096
-0.023218775 0.48312005 -0.082547657 0.025709257 -0.4223904 0.90604937 0.025102094
-0.015548298 0.48310494 -0.082678445 -0.026325163 -0.42355776 0.90548652 0.025797987
-0.0060600755 0.48379397 -0.082155116 -0.031179005 -0.40050176 0.9157654 0.026806436
0.0055579473 0.48356807 -0.082539648 -0.030857729 -0.41848704 0.90769839 0.02785977
0.016837731 0.48432222 -0.081803285 0.0094424924 -0.45369437 0.89110732 0.023633506
0.025603324 0.48257923 -0.082898237 0.014766715 -0.39669338 0.91783237 0.027508238
0.035938747 0.48275995 -0.08238405 0.0069958181 -0.42144698 0.90682602 0.028963445
0.045445692 0.48281249 -0.083064348 -0.0014432753 -0.43013808 0.902762 0.026764965
0.053832334 0.4825269 -0.083055854 -0.021834303 -0.40810046 0.91267586 0.026027543
0.063571736 0.48286641 -0.082533188 -0.0079355249 -0.40108564 0.91600615 0.026401186
0.074630722 0.48333576 -0.082621992 -0.020530105 -0.41987699 0.90734875 0.026935499
0.084125884 0.48332307 -0.082807295 0.014921173 -0.39367399 0.91912901 0.026234429
0.093489364 0.48271042 -0.082912162 -0.061882585 -0.38388836 0.92130363 0.024239698
0.10586784 0.48382699 -0.082242936 -0.14507221 -0.38497588 0.91145355 0.029052565
0.1132898 0.48237446 -0.081207044 -0.23797706 -0.36157694 0.9014594 0.024279175
-0.11510811 0.33874065 -0.071743429 -0.58834964 -0.6391353 -0.49532881 0.064152174
-0.10487394 0.33794737 -0.071280763 -0.35875043 -0.79227251 -0.49356073 0.072097719
-0.09463349 0.33954132 -0.072874688 -0.11742686 -0.77964222 -0.61511707 0.040231604
-0.085761085 0.33806568 -0.071399078 -0.010900186 -0.82875472 -0.559506 0.03535486
-0.072833933 0.33886772 -0.072201148 0.0014146346 -0.7902627 -0.61276644 0.040972285
-0.066315383 0.33851293 -0.071846351 0.042559121 -0.82928634 -0.55720097 0.033037242
-0.056260992 0.3380571 -0.07139048 -0.0030908617 -0.80800366 -0.58916932 0.043511115
-0.044294734 0.33862048 -0.07195387 0.0079106092 -0.83810586 -0.54545033 0.034020308
-0.03381161 0.33850849 -0.071841866 -0.024367269 -0.79926026 -0.60049081 0.027704276
-0.024045762 0.33758092 -0.070914298 -0.05670866 -0.76700044 -0.63913566 0.029990466
-0.015630733 0.33844399 -0.071777366 -0.015484112 -0.7253561 -0.6881997 0.026293503
-0.0063687959 0.33856988 -0.071903244 0.0017724272 -0.77491784 -0.6320594 0.012285884
0.0056030676 0.33895627 -0.072289653 0.01664345 -0.69576973 -0.71807206 0.024568439
0.013081239 0.33900097 -0.072334401 0.046094522 -0.72100943 -0.6913904 0.023354292
0.023158275 0.33829427 -0.071627676 0.040480677 -0.75861192 -0.65028399 0.028062096
0.038282122 0.33828476 -0.071618162 -0.0080418149 -0.85141754 -0.52442682 0.022839615
0.047095358 0.33787751 -0.071210906 0.0069564441 -0.86331993 -0.50460911 0.026679052
0.055525728 0.33856449 -0.071897872 0.006532474 -0.81000143 -0.58639145 0.0410867
0.066177979 0.33820009 -0.071533509 -0.028670274 -0.82668775 -0.56193 0.033777896
0.076123267 0.33852267 -0.071856067 -0.014052043 -0.82799673 -0.56055677 0.03361991
0.081269249 0.33696669 -0.070300117 0.010311217 -0.8597402 -0.51062763 0.026082791
0.093007043 0.33697131 -0.070304699 0.058301613 -0.82694924 -0.55924582 0.031783596
0.105236 0.33743256 -0.070765994 0.11141425 -0.84472501 -0.52347541 0.027995139
0.11310954 0.33954453 -0.071355209 0.19619191 -0.72996879 -0.65471703 0.044803187
-0.11561577 0.34383655 -0.074280314 -0.63699043 -0.51757765 -0.57127625 0.064335674
-0.10572667 0.34315681 -0.076490201 -0.38042584 -0.6201663 -0.68605387 0.077912949
-0.093913168 0.34204507 -0.075378478 -0.086151004 -0.69823855 -0.71066231 0.040861446
-0.087872483 0.34399191 -0.07732527 -0.0050244704 -0.67434341 -0.7384007 0.032874942
-0.075363211 0.34311059 -0.076443993 0.0018681971 -0.6651777 -0.74668282 0.037008617
-0.065935217 0.34379876 -0.077132113 0.023359591 -0.64404106 -0.76463419 0.032834768
-0.05436961 0.34435341 -0.077686794 0.011407059 -0.65083361 -0.75913477 0.033167858
-0.044435225 0.34415886 -0.077492222 -0.0071831383 -0.62158513 -0.78331369 0.030648975
-0.034907561 0.34374443 -0.077077828 -0.0092311241 -0.59507239 -0.80361909 0.038880356
-0.025549844 0.34308821 -0.076421551 -0.024719428 -0.67647898 -0.73604691 0.041402478
-0.013158177 0.34265459 -0.075987943 -0.013176595 -0.67949295 -0.73356372 0.028791782
-0.0049460391 0.34177727 -0.075110689 0.012411053 -0.69305789 -0.72077507 0.029372133
0.0052838656 0.34345755 -0.076790929 -0.0025502313 -0.69555897 -0.71846449 0.029936858
0.014514104 0.34324789 -0.076581277 0.0020902548 -0.6867559 -0.72688514 0.027406273
0.026652804 0.34397602 -0.077309415 -0.018404517 -0.6329419 -0.77398056 0.032152843
0.034748845 0.34347934 -0.076812729 -0.0021803356 -0.64643753 -0.76296383 0.03158896
0.044106405 0.34379378 -0.077127211 -0.023656957 -0.64702016 -0.76210588 0.033480812
0.053706039 0.34480965 -0.078143045 0.00098245381 -0.62812138 -0.77811474 0.0327488
0.064602762 0.34325412 -0.076587513 -0.0036364743 -0.66183478 -0.74964088 0.026532559
0.076660253 0.34349573 -0.076829113 -0.010297383 -0.64227694 -0.7664035 0.030071862
0.085638709 0.34327808 -0.076611437 -0.0075782924 -0.64089531 -0.76759088 0.0299528
0.094129823 0.34315884 -0.07649222 0.050077956 -0.61906546 -0.78374112 0.028878959
0.10537142 0.34273621 -0.076017015 0.13984738 -0.61917806 -0.77269739 0.02975801
0.11508741 0.34480363 -0.075913854 0.2536836 -0.50699896 -0.82376981 0.032540929
0.12371578 0.34531763 -0.073236994 0.31771934 -0.51978153 -0.79302055 0.042022318
-0.11833335 0.35445324 -0.074010931 -0.56889063 -0.44598627 -0.69098455 0.058650848
0.1178804 0.35454291 -0.07905037 -0.3399682 0.2519964 0.90604603 0.017409867
0.12409279 0.35526928 -0.076117031 -0.34988549 0.24153301 0.90511984 0.014898337
0.13330515 0.35258487 -0.071767181 -0.38023487 0.2581479 0.88813347 0.018375773
-0.11833336 0.36573783 -0.073627688 -0.46016556 -0.35717541 -0.81281811 0.067822494
0.11736288 0.3663426 -0.079294741 -0.33724988 0.073851973 0.93851393 0.0073847459
0.12533022 0.36566088 -0.075532749 -0.38884342 0.073417284 0.91837394 0.0050156834
0.13423714 0.36696386 -0.071327113 -0.42323962 0.062738068 0.90384299 0.0032788413
-0.24624538 0.3766253 -0.07258141 0.63031423 0.39368358 0.66911674 0.061990391
-0.23457582 0.37526724 -0.072026737 -0.28577739 -0.45039278 -0.84585911 0.046435285
-0.22450757 0.37579688 -0.072229877 -0.057502836 -0.49613017 -0.86634183 0.0070180623
-0.2136474 0.37483951 -0.071841583 -0.0056382511 -0.500781 -0.86555564 0.0034847234
-0.2050356 0.37667453 -0.072781235 0.0084390733 -0.48620969 -0.87380141 0.0031387494
-0.19638674 0.37625292 -0.072496228 0.00050100673 -0.48704273 -0.87337798 0.0046853791
-0.18457824 0.37720826 -0.07308349 0.00053314387 -0.48439229 -0.87485081 0.0040572644
-0.17430063 0.37575778 -0.072298221 -0.0056957169 -0.50705439 -0.8618952 0.0033091747
-0.16623616 0.37535214 -0.072020553 -0.0058499477 -0.50159699 -0.86508155 0.0037937176
-0.15479676 0.37736377 -0.07312227 0.00091864227 -0.47363111 -0.88072282 0.0045875935
-0.14612135 0.37685719 -0.072862305 -0.030360177 -0.48515013 -0.87390363 0.0068839989
-0.13391142 0.37490118 -0.071681805 -0.1613856 -0.49596784 -0.853212 0.029092854
-0.12644257 0.37623182 -0.072473004 -0.26633972 -0.44703224 -0.85394686 0.04564441
-0.11833337 0.37147561 -0.071736172 -0.42186654 -0.30138421 -0.85510004 0.053789455
0.11835007 0.37545842 -0.078828603 -0.35532045 0.00402905 0.93473583 0.003040497
0.12531278 0.37373623 -0.075540982 -0.40482733 0.015671453 0.91425878 0.00088580151
0.1342812 0.3755303 -0.071306311 -0.42696831 1.8579816e-05 0.9042666 0
-0.24701324 0.3856113 -0.07518398 0.66448557 0.33240923 0.66930044 0.072608784
-0.23327088 0.3856391 -0.076575659 -0.23622198 -0.35838538 -0.90319383 0.046450976
-0.22504261 0.38424867 -0.075999714 -0.085521892 -0.39821708 -0.91329575 0.014954276
-0.2145986 0.38558477 -0.076553151 -0.0040947776 -0.36808679 -0.92978239 0.0040685311
-0.20535055 0.3853848 -0.07647033 -0.0043932931 -0.39430657 -0.91896844 0.0032886174
-0.19507937 0.38513544 -0.076367006 -0.0059895106 -0.38444713 -0.92312765 0.0040600509
-0.1876367 0.38307005 -0.075511508 -0.0017731956 -0.4141655 -0.91019988 0.003611519
-0.1757156 0.3862372 -0.076823398 0.0024528238 -0.366716 -0.93032968 0.0046715317
-0.16568507 0.38604084 -0.076742083 0.0055702575 -0.3778027 -0.92586941 0.0042984169
-0.15658578 0.38491184 -0.07627441 0.00021581374 -0.39863467 -0.91710979 0.0031666339
-0.14501746 0.38492641 -0.076280445 -0.0054848413 -0.40821567 -0.91286904 0.0045560356
-0.1368905 0.38600823 -0.076728545 -0.064516082 -0.36419013 -0.92908728 0.014345304
-0.12478603 0.38481373 -0.07623376 -0.21502838 -0.31222934 -0.92535162 0.0318087
-0.11833336 0.38463721 -0.078769967 -0.20233853 -0.28658965 -0.93644297 0.030106299
0.11780662 0.38339812 -0.079085216 -0.34519953 -0.00062524877 0.93852913 0.0036489989
0.1259878 0.38541296 -0.075222261 -0.4098936 -0.001275081 0.9121325 0.00034064913
0.13283245 0.38662514 -0.071990371 -0.42139226 0.00031637392 0.90687841 0.00013177033
-0.24828798 0.39330351 -0.077368669 0.57574427 0.28723279 0.7655167 0.066917546
-0.23590766 0.39175376 -0.079108439 0.36510128 0.27480859 0.88948375 0.066565171
-0.22420239 0.39119843 -0.078878403 -0.072348297 -0.32706067 -0.94222981 0.014016889
-0.2144835 0.39230457 -0.079336569 0.0077318666 -0.3134535 -0.94957209 0.0042405915
-0.20658629 0.39142227 -0.078971118 0.0063298936 -0.32236877 -0.94659305 0.0041599316
-0.19375767 0.39212403 -0.079261795 -0.0082611982 -0.29932541 -0.95411539 0.0032550676
-0.18341585 0.39240354 -0.079377577 -0.0019471353 -0.30070323 -0.95371574 0.0031451618
-0.17296155 0.3916803 -0.079077996 -0.0010937258 -0.31517443 -0.94903314 0.0029795624
-0.16578983 0.39144158 -0.078979127 -0.00049586932 -0.30920029 -0.95099682 0.0035328567
-0.15362328 0.3925707 -0.0794468 0.0041817245 -0.30517524 -0.95228696 0.0037703922
-0.14474855 0.39278808 -0.07953687 -0.023530781 -0.29754758 -0.95441699 0.0044935327
-0.13433041 0.39152074 -0.079011902 -0.070922539 -0.28211984 -0.95675409 0.013149116
-0.12854524 0.39269704 -0.079499133 -0.086590156 -0.27320883 -0.95804965 0.013147485
0.1185033 0.3961364 -0.07875625 -0.35585386 0.002782691 0.93453747 0.0034775545
0.12437458 0.39486325 -0.075983986 -0.40525079 -0.0015883215 0.91420418 0.00037898213
0.13275309 0.39611027 -0.07202784 -0.42375159 4.286176e-05 0.90577847 6.8873502e-05
-0.24999997 0.40539169 -0.076003522 0.75199336 0.15673229 0.64026642 0.079571776
0.11804868 0.40237406 -0.078970909 -0.32989758 -0.003904474 0.94400865 0.004146372
0.12451131 0.40577537 -0.075919412 -0.40905082 0.0036944831 0.91250414 0.000371103
0.13279159 0.40669075 -0.072009668 -0.426961 2.5733279e-05 0.90427005 1.3202123e-05
-0.24999999 0.41413918 -0.075150803 0.82301503 -0.0061121532 0.56798673 0.083952345
0.11932638 0.41459203 -0.078367621 -0.3505235 0.0055744192 0.93653738 0.0041163131
0.12578976 0.41524294 -0.075315766 -0.40265319 -0.00072926056 0.9153524 0.00056643737
0.13260949 0.41152585 -0.072095647 -0.42228407 -0.00059380545 0.90646338 0.00013758279
-0.24999999 0.42432141 -0.076063171 0.76006913 -0.089878678 0.64359671 0.076828212
0.11770216 0.42437664 -0.079134531 -0.33977154 -0.010329363 0.94045126 0.00404929
0.12431803 0.42290419 -0.076010674 -0.40165502 -0.0020657931 0.91578871 0.00059205806
0.13360557 0.42530188 -0.07162533 -0.42697015 4.0427112e-05 0.9042657 0
-0.24999997 0.43268186 -0.075444043 0.69621652 -0.16267146 0.69915712 0.075492904
-0.20065279 0.43956119 -0.079944447 0.0071914853 -0.27768213 0.96064603 0.003637851
-0.19146724 0.43967062 -0.079899102 0.010665026 -0.29620376 0.95506519 0.0051716003
-0.16755474 0.43956065 -0.079944655 -0.0045652301 -0.26759738 0.96351999 0.0034922941
-0.15572283 0.43948358 -0.079976574 3.5339599e-05 -0.29819474 0.95450509 0.0047841431
-0.13714811 0.43952185 -0.079960719 0.060071208 -0.2764177 0.9591583 0.0089163911
-0.12134509 0.43992427 -0.079794034 0.13851461 -0.19749668 0.97046834 0.016721364
-0.11935823 0.43971983 -0.079878733 0.12771942 -0.17074373 0.97700274 0.015567316
0.11824729 0.43367672 -0.078877144 -0.35515243 -0.0036822308 0.93480116 0.0033526027
0.12622558 0.43560961 -0.075109974 -0.40737072 -0.00043960122 0.91326272 0.00052697753
0.13295518 0.43574056 -0.071932413 -0.42696241 3.1296644e-05 0.90426934 5.8583369e-06
-0.2468143 0.44517744 -0.075668283 0.6836732 -0.27118132 0.67753351 0.083279394
-0.23577711 0.44335383 -0.078373477 0.33717638 -0.30941451 0.88914263 0.057409372
-0.22537045 0.44350499 -0.078310855 0.10340909 -0.32501224 0.94003916 0.015237928
-0.21550792 0.44513214 -0.077636868 0.012500661 -0.35937244 0.93311048 0.0031259728
-0.20464921 0.44498172 -0.07769917 0.0013055912 -0.34209502 0.93966442 0.0042792135
-0.19410647 0.44647703 -0.07707981 -0.0044292198 -0.37137765 0.92847139 0.0031709112
-0.18535292 0.44536558 -0.077540182 -0.0012238487 -0.35260946 0.93576968 0.0034115775
-0.17534439 0.44494659 -0.077713728 -0.0036404801 -0.35448933 0.93505293 0.0030371586
-0.16336219 0.4467417 -0.076970167 0.0022562111 -0.38147432 0.92437667 0.0037578496
-0.15432784 0.44759175 -0.076618083 0.01201447 -0.38897127 0.92117161 0.0038963368
-0.14663096 0.44404116 -0.07808876 0.010682962 -0.32212228 0.94663781 0.0043444377
-0.13279207 0.44309598 -0.078480273 0.12888874 -0.27354932 0.95318329 0.016393183
-0.1265415 0.44428214 -0.077988952 0.12410629 -0.27012169 0.95479423 0.018608076
-0.11868242 0.44735625 -0.078336127 0.21678783 -0.22077583 0.95092642 0.028420914
0.11785513 0.44368494 -0.079062305 -0.3435789 -0.0055387416 0.93910748 0.0031691156
0.1247077 0.44563898 -0.07582669 -0.38576129 0.00097985589 0.92259812 0.0016587477
0.13384889 0.44423607 -0.071510427 -0.42697066 1.2080369e-05 0.90426546 8.9268434e-07
-0.24532893 0.45502049 -0.073061779 0.59718835 -0.38447586 0.70394909 0.077949271
-0.23583566 0.45431581 -0.073772326 0.32077196 -0.4492228 0.83384913 0.049077574
-0.22433925 0.45377812 -0.074055597 0.062560685 -0.42791975 0.90164894 0.0088716969
-0.21334906 0.45645308 -0.072890505 0.0039453791 -0.48855928 0.87252176 0.0034505979
-0.20552041 0.45537481 -0.073332973 0.015694354 -0.4906795 0.87119871 0.0040598772
-0.19601586 0.45481458 -0.073572405 -0.00870982 -0.47327644 0.88087088 0.0054705502
-0.18650514 0.45643315 -0.072831102 -0.010109643 -0.48638356 0.87368685 0.0038200065
-0.17662966 0.4569124 -0.07262899 -0.0070740646 -0.48812285 0.87274629 0.0035155411
-0.16517881 0.45698559 -0.072584145 0.0045306734 -0.49225476 0.87043935 0.0036256318
-0.15357605 0.45627323 -0.072995104 0.018395292 -0.48458666 0.87454981 0.0034865483
-0.14392528 0.45535642 -0.073312864 0.039076354 -0.47409889 0.87960398 0.0070373351
-0.13552211 0.45594183 -0.073022068 0.10522436 -0.46678555 0.8780883 0.022628158
-0.12575522 0.45664945 -0.07262335 0.26877838 -0.40756676 0.87272412 0.037644543
-0.11855163 0.45617637 -0.074711695 0.34846112 -0.21586818 0.91212702 0.040065568
0.11847595 0.45836326 -0.07876917 -0.34998938 -0.005718838 0.93673623 0.0033841624
0.12592815 0.45586485 -0.075250424 -0.41075441 -0.0040033325 0.9117372 0.00045494174
0.13290021 0.45576024 -0.071958378 -0.42690864 -0.00096617651 0.90429419 9.478701e-06
-0.23790933 0.46028885 -0.070668243 0.34070638 -0.49889451 0.79688352 0.049033519
-0.21722889 0.46060473 -0.070425816 0.0048416145 -0.54630321 0.83757353 0.0050545931
-0.20603785 0.4601562 -0.070769981 0.006652711 -0.53685611 0.84364754 0.0055956175
-0.19275691 0.46011958 -0.070798114 -0.0044717132 -0.52866334 0.84881985 0.0050350209
-0.18585521 0.46074131 -0.070321046 -0.011238145 -0.5351432 0.84468663 0.0050906474
-0.15577935 0.46050325 -0.070503704 -0.004583572 -0.52141625 0.85329014 0.0049850279
-0.14536899 0.46057177 -0.070451111 0.053726256 -0.54548061 0.83639961 0.0090947049
-0.13689637 0.46075511 -0.070310429 0.15723036 -0.50885212 0.84637356 0.035292905
-0.11833335 0.46497229 -0.075975478 0.46474576 -0.30070174 0.83282036 0.054999523
0.11848406 0.46705538 -0.07876534 -0.33117324 -0.087758794 0.93947995 0.0083060693
0.12590624 0.46597567 -0.075260766 -0.39341971 -0.068349667 0.91681468 0.0046724784
0.13594452 0.46832275 -0.070520923 -0.42014804 -0.062987983 0.90526682 0.0036021776
-0.11833335 0.47471321 -0.074449018 0.57056338 -0.34940156 0.74321997 0.043740533
0.11653672 0.47562647 -0.079684824 -0.31118542 -0.21278401 0.92622173 0.0172091
0.1248098 0.47629002 -0.075778469 -0.37193543 -0.22339918 0.90097553 0.014549381
0.13248879 0.47396538 -0.072152637 -0.39255449 -0.17459564 0.90300465 0.013939778
-0.11722218 0.48533154 -0.076297797 0.58104938 -0.45256415 0.6764372 0.054586343
-0.10629608 0.48767918 -0.078987405 0.31590703 -0.5797497 0.7510612 0.064227477
-0.095626883 0.48754907 -0.079117514 0.12542239 -0.59721291 0.79221588 0.043054547
-0.080703437 0.48843217 -0.078234449 -0.0029017199 -0.6090107 0.79315668 0.0333624
-0.075366661 0.48830238 -0.078364208 -0.014311819 -0.60985029 0.79238743 0.033340309
-0.066638447 0.48822549 -0.078441083 -0.017074833 -0.59824908 0.80112833 0.032341145
-0.058898374 0.48794943 -0.078717165 0.01104712 -0.59002477 0.80730951 0.031378459
-0.044011857 0.48871017 -0.077956423 0.018120706 -0.62159961 0.78312546 0.032410685
-0.034941863 0.48763117 -0.079035461 0.052307397 -0.58890676 0.80650651 0.032984991
-0.02543286 0.48843923 -0.078227326 -0.0055676871 -0.61128187 0.7913934 0.039249763
-0.011615315 0.48870358 -0.077963054 0.0073141279 -0.62472802 0.78080815 0.035296246
-0.0033526157 0.48864233 -0.078024276 0.0319851 -0.62676388 0.77855247 0.031448554
0.016408456 0.48859826 -0.078068361 -0.0086074937 -0.62767339 0.77842915 0.035864219
0.025010124 0.48960757 -0.077059031 -0.011856592 -0.60472876 0.79634315 0.029993463
0.036051612 0.48815089 -0.078515686 0.017218497 -0.60626322 0.79507768 0.034782264
0.046674442 0.48895788 -0.077708684 0.03602042 -0.62380546 0.78074914 0.032321624
0.05469121 0.48915771 -0.077508859 -0.0023875735 -0.6220907 0.78294158 0.032300465
0.06530939 0.48834419 -0.078322411 0.003178664 -0.62293023 0.78227103 0.03260278
0.075256675 0.48909053 -0.077576078 -0.015844719 -0.61182159 0.79083711 0.033411585
0.084390648 0.48819873 -0.078467838 -0.008007911 -0.61503369 0.78846008 0.031170802
0.095759928 0.48763418 -0.079032443 -0.050335586 -0.59189135 0.80444443 0.032266155
0.10589864 0.48781034 -0.078743502 -0.15137103 -0.57052547 0.80720967 0.036973462
0.11475794 0.48868603 -0.075874098 -0.25798345 -0.53616726 0.80372214 0.032335918
0.12440349 0.4853819 -0.074460737 -0.33288249 -0.42889073 0.83978683 0.032415904
0.13389631 0.48415697 -0.071229197 -0.34402359 -0.35696191 0.86846185 0.02784111
-0.11480759 0.49248689 -0.073686339 0.61410761 -0.57927543 0.53601474 0.063302793
-0.10404963 0.49419641 -0.072470255 0.2501736 -0.75910807 0.60097265 0.061248753
-0.096822895 0.49371064 -0.072956018 0.16398966 -0.76171923 0.62681031 0.054260109
-0.084773816 0.49377254 -0.072894052 0.0083748559 -0.80616313 0.59163415 0.034375191
-0.074827559 0.49344498 -0.073221639 -0.011777502 -0.79223001 0.61010891 0.033125091
-0.064991549 0.49303126 -0.073635377 0.012922824 -0.75228798 0.65870768 0.040613387
-0.054271806 0.49451637 -0.07215026 0.0099347439 -0.81779993 0.5754168 0.031189919
-0.042590149 0.49335077 -0.073315814 -0.017188543 -0.79949969 0.60042053 0.034469027
-0.034814838 0.49389899 -0.072767638 0.0035614825 -0.79423076 0.60760587 0.034824297
-0.024547279 0.49425659 -0.072410032 0.0046770019 -0.8279314 0.56080985 0.034851126
-0.015902435 0.49333221 -0.073334426 -0.014588711 -0.74290711 0.66923559 0.035365421
-0.0030150069 0.49311104 -0.073555589 0.0083598439 -0.70570749 0.70845401 0.029445512
0.0044744182 0.49368876 -0.072977833 -0.0096005518 -0.80921721 0.58743113 0.026367446
0.013305712 0.49294221 -0.073724411 0.0070414962 -0.74933457 0.66215426 0.038074162
0.02416487 0.49372822 -0.072938405 -0.014660167 -0.75149304 0.65957808 0.021066433
0.034220736 0.4945229 -0.072143719 0.0085763065 -0.78616387 0.61795849 0.031138632
0.047144972 0.49384975 -0.072816893 0.027352853 -0.77493584 0.63144773 0.029681826
0.055238824 0.49330208 -0.073364511 0.0017780925 -0.74277288 0.66954118 0.037375391
0.063545942 0.49264732 -0.074019305 0.0031488247 -0.67696238 0.73601091 0.031360887
0.075276464 0.49301752 -0.073649079 -0.021358533 -0.72665137 0.6866743 0.033302803
0.084699571 0.49189416 -0.074772455 0.0081102084 -0.70495301 0.70920759 0.038776591
0.091408789 0.49201155 -0.074655019 -0.013068293 -0.69312871 0.72069538 0.038134348
0.10737797 0.4941678 -0.072396345 -0.13975824 -0.75874722 0.63621563 0.035297375
0.11430902 0.49209318 -0.072625957 -0.19984727 -0.64766723 0.73524708 0.038248982
0.1229303 0.49091157 -0.070754483 -0.28083709 -0.63149917 0.72273046 0.044419523
-0.11528887 0.33428276 -0.063062921 -0.54121047 -0.77450216 -0.32747179 0.057636585
-0.10449997 0.33360761 -0.064175054 -0.33475265 -0.88332278 -0.32814866 0.056319732
-0.094378792 0.33436444 -0.066348456 -0.072736837 -0.88925153 -0.45159838 0.030238422
-0.085596539 0.33353445 -0.064404972 0.0030071768 -0.93211627 -0.36214676 0.024340644
-0.076413766 0.33365053 -0.063977055 0.016413109 -0.90116686 -0.43316153 0.023230346
-0.065438643 0.33373299 -0.064947136 -0.012876116 -0.90238672 -0.43073484 0.024231967
-0.056530289 0.33453014 -0.066838637 0.010802587 -0.88403696 -0.46729222 0.027098658
-0.044058397 0.33377346 -0.06462127 -0.039918389 -0.89643621 -0.44137126 0.025880661
-0.037080415 0.33391482 -0.064546578 -0.070400812 -0.8468647 -0.52712804 0.033363584
-0.025773117 0.33478284 -0.067176297 -0.064507298 -0.7910378 -0.60835683 0.029343698
-0.014005439 0.3343035 -0.067129508 -0.09213502 -0.75863439 -0.64496893 0.027866697
-0.0042385454 0.33516374 -0.067927837 -0.023463978 -0.73772103 -0.67469776 0.025094582
0.0056646192 0.33406833 -0.065045334 0.056476675 -0.7424351 -0.6675331 0.029011866
0.014112918 0.33433461 -0.066445902 0.051689979 -0.73781008 -0.67302632 0.030066915
0.023376543 0.33381492 -0.0651583 0.10656252 -0.78934216 -0.60463494 0.040572546
0.034701504 0.33358526 -0.064619362 0.13306437 -0.83235389 -0.5380342 0.04056637
0.044353563 0.33432826 -0.065539427 0.021929506 -0.88605899 -0.46305352 0.024753952
0.055148024 0.33410525 -0.064622417 -0.0064998129 -0.92870027 -0.37077436 0.024259547
0.065551534 0.33433473 -0.066187665 -0.035813317 -0.87836337 -0.47665015 0.026355045
0.075813673 0.33333325 -0.06348706 -0.0076933112 -0.93283916 -0.36021093 0.027108718
0.085752554 0.33445781 -0.066570468 -0.017650399 -0.89196903 -0.45175189 0.026111891
0.095450781 0.33445734 -0.067366421 0.036708079 -0.88875258 -0.45691511 0.024438307
0.10623405 0.33522052 -0.067728192 0.088186421 -0.86458528 -0.49468729 0.029939465
0.11449113 0.33475518 -0.065318525 0.12268741 -0.86720997 -0.48259172 0.031578191
0.12513043 0.33634472 -0.063898444 0.1624984 -0.84807706 -0.50434059 0.035335843
0.13492805 0.33861569 -0.06269975 0.30708155 -0.70343876 -0.64099526 0.052525796
0.14235227 0.33921522 -0.060670123 0.28276673 -0.69086677 -0.66539174 0.054499373
-0.11833335 0.34448203 -0.063803606 -0.60743439 -0.62690902 -0.48786122 0.058154859
0.12739372 0.34217498 -0.068927146 0.33097222 -0.61660588 -0.71432102 0.046420317
0.13570635 0.34405962 -0.067759432 0.34874499 -0.51329935 -0.78415608 0.043178614
0.144123 0.34556204 -0.065248817 0.29688051 -0.44158909 -0.84667647 0.04706981
0.15661918 0.34661162 -0.060606997 0.38579726 -0.41012919 -0.82641053 0.048306301
-0.24178253 0.35990763 -0.060588069 -0.39815298 -0.66010374 -0.63697499 0.058789939
-0.22645044 0.35940474 -0.060202189 -0.11987387 -0.69032454 -0.71350008 0.018865252
-0.2037169 0.35928023 -0.060106643 -0.0053573968 -0.68522877 -0.72830826 0.0021764755
-0.19596744 0.35970688 -0.060434032 0.0059931637 -0.67274517 -0.73984998 0.0026199373
-0.17577484 0.35951746 -0.060288701 0.0052646976 -0.69139004 -0.72246259 0.0020163385
-0.15877783 0.35949874 -0.060274325 -0.0029669816 -0.68872231 -0.7250191 0.0019320829
-0.14089847 0.35976601 -0.060479384 -0.1159431 -0.65853912 -0.74356139 0.025116093
-0.13470548 0.35958555 -0.060340919 -0.21505046 -0.68127769 -0.6997242 0.05054687
-0.12762365 0.35930666 -0.060126927 -0.43613559 -0.58451772 -0.68419647 0.079657964
-0.11833335 0.35378721 -0.064339846 -0.58864075 -0.53906059 -0.6024248 0.055631343
0.14422126 0.35458708 -0.066612847 -0.40359005 0.224132 0.88706249 0.019913422
0.15357558 0.35492414 -0.062195964 -0.37287384 0.26449302 0.88938659 0.023084486
-0.24596919 0.36521909 -0.064324029 0.59910285 0.46110502 0.65456694 0.06552957
-0.23649096 0.36471051 -0.064273447 -0.31944981 -0.58058208 -0.74891675 0.047240958
-0.22494002 0.36578333 -0.065096647 -0.075285032 -0.61963505 -0.7812711 0.01397546
-0.21425262 0.36629823 -0.065491706 0.0028076854 -0.60231507 -0.79825354 0.0061110985
-0.20393488 0.36513129 -0.06459628 -0.00084508635 -0.63764083 -0.77033335 0.0041432129
-0.19481464 0.36285722 -0.062851377 -0.0071137673 -0.64955288 -0.76028317 0.0041989186
-0.18520416 0.36548123 -0.064864807 -0.0013358784 -0.64050418 -0.76795352 0.004036535
-0.17512976 0.36376238 -0.063545927 0.0077407644 -0.65075678 -0.75924677 0.0039172494
-0.16556412 0.36437336 -0.064014725 -0.0047992081 -0.64666981 -0.76275498 0.0046555968
-0.15456794 0.36347318 -0.063323997 -0.0079463106 -0.64843208 -0.76123101 0.0044555464
-0.14440821 0.36407122 -0.063782923 -0.088623717 -0.64743173 -0.75695312 0.017599031
-0.13454136 0.36486307 -0.064390473 -0.26772177 -0.60947663 -0.74623275 0.055944797
-0.12346322 0.3638339 -0.063600771 -0.53626072 -0.49878329 -0.68091089 0.071086861
-0.1186325 0.36277604 -0.065078013 -0.63642573 -0.40477493 -0.65659684 0.062256366
0.13855758 0.36661467 -0.069287099 -0.42115894 0.071634732 0.90415347 0.0039965967
0.14584048 0.36526099 -0.065848291 -0.40179113 0.073176928 0.91280282 0.0045292792
0.15273437 0.36399069 -0.062593162 -0.40848094 0.099041738 0.90737754 0.0069297119
-0.24906905 0.37456262 -0.066688702 0.72775662 0.35518453 0.58669776 0.077744707
-0.23330683 0.3704659 -0.068689704 -0.30034649 -0.51964599 -0.79985005 0.044517469
-0.22979614 0.37164381 -0.069593512 -0.16504142 -0.50886631 -0.84487659 0.027686004
-0.21402366 0.37110046 -0.069176607 -0.0049616089 -0.54299247 -0.83972287 0.0046826224
-0.20124537 0.37057397 -0.068772621 -0.0066476995 -0.56198776 -0.82711881 0.0046543875
-0.1957541 0.37087983 -0.069007307 0.005763371 -0.55251181 -0.83348513 0.0044938684
-0.18395418 0.37215775 -0.069987901 0.00032816475 -0.53238386 -0.84650302 0.0046080574
-0.17245993 0.37111354 -0.069186598 -0.0023993782 -0.5330745 -0.84606487 0.0046392484
