# .PCD v0.7 - Point Cloud Data file format
VERSION 0.7
FIELDS x y z normal_x normal_y normal_z curvature
SIZE 4 4 4 4 4 4 4
TYPE F F F F F F F
COUNT 1 1 1 1 1 1 1
WIDTH 572
HEIGHT 1
VIEWPOINT 0 0 0 1 0 0 0
POINTS 572
DATA ascii
0.037636198 -0.36480132 0.029569682 -0.21965246 0.029758397 -0.97512418 0.0087077217
0.045164771 -0.36420149 0.027299834 -0.39176634 0.035293192 -0.91938758 0.0067930375
0.055568192 -0.36518914 0.022063944 -0.63534725 0.025438655 -0.77180749 0.027325997
-0.010714446 -0.35407227 0.021127993 0.6454528 0.015360898 -0.76364571 0.03097753
-0.0043016369 -0.35478225 0.024956945 0.49389058 0.011794508 -0.86944407 0.015501939
0.005055394 -0.35418972 0.02868318 0.29148304 0.036727864 -0.95587069 0.0095053045
0.03857436 -0.35265964 0.029584164 -0.28366554 0.019668695 -0.95872152 0.010480355
0.044602685 -0.3540698 0.027740488 -0.38756132 0.021035114 -0.92160386 0.0070607886
0.055265006 -0.35465208 0.022527438 -0.57927263 0.006082851 -0.81511116 0.014669926
-0.011482194 -0.34412923 0.020712605 0.68989253 0.052814189 -0.7219826 0.030174723
-0.0041284561 -0.34443143 0.025288677 0.52755064 0.027820759 -0.84906799 0.013322618
0.0042777285 -0.34577864 0.028642759 0.31580675 0.014994227 -0.94870502 0.0093659256
0.038633123 -0.34271726 0.029770002 -0.25766999 0.035838921 -0.96556813 0.0095589804
0.04606659 -0.34567958 0.027366005 -0.37390733 0.0049829548 -0.92745274 0.0062229568
0.054338042 -0.34454983 0.023322245 -0.55341804 0.02567626 -0.83250773 0.017156916
-0.011524226 -0.33483723 0.020879218 0.68107629 0.021928562 -0.731884 0.030129401
-0.0052293795 -0.33338943 0.024913723 0.54595017 0.026861863 -0.83738685 0.013348579
0.0036856688 -0.33447883 0.02867116 0.33301926 0.018218419 -0.94274408 0.0081456406
0.045338642 -0.33515045 0.027879529 -0.35085443 0.017691074 -0.93626297 0.0086597679
0.055304255 -0.33541754 0.022855204 -0.58220285 0.0018706144 -0.81304139 0.014694073
-0.011397681 -0.3237848 0.02123569 0.64025307 0.025512269 -0.76774031 0.023170099
-0.0041581588 -0.3247368 0.025639409 0.54662424 0.031807523 -0.83677363 0.013390537
0.0035723606 -0.32452142 0.028808361 0.3494935 0.01157456 -0.93686724 0.0081397165
0.045192137 -0.32543787 0.028081177 -0.38590077 0.016370988 -0.92239499 0.0074152094
0.053940229 -0.32461271 0.023851933 -0.5488236 -0.0031668965 -0.83593214 0.017695384
-0.011792996 -0.31505796 0.021055765 0.65940493 5.2593972e-05 -0.75178796 0.028201569
-0.0047191698 -0.31511194 0.025505574 0.55220103 0.019168613 -0.83349055 0.012861731
0.0040936749 -0.3134684 0.029124346 0.34235924 0.017283887 -0.93941009 0.0065939897
0.039746113 -0.31355348 0.02992967 -0.2881124 0.026535682 -0.9572289 0.010365252
0.044298064 -0.31280065 0.02861678 -0.34386671 0.040164653 -0.93815905 0.0094185993
0.054826371 -0.31516227 0.023491368 -0.56062788 -0.0076998286 -0.82803208 0.01367082
-0.01175356 -0.30595824 0.021222549 0.66633987 0.00055982731 -0.74564797 0.029719325
-0.0060908017 -0.30470294 0.024909133 0.54620576 0.011969831 -0.83756554 0.013256144
0.0040082578 -0.30659825 0.029175054 0.33942533 0.0060775098 -0.94061339 0.0072785513
0.044964343 -0.30583221 0.028399395 -0.37445486 0.016998727 -0.92708933 0.0079072295
0.054522455 -0.30401289 0.023878876 -0.59223533 -0.014995801 -0.8056255 0.01234099
-0.011513798 -0.29480311 0.021593586 0.65296972 -0.017704559 -0.75717705 0.027216719
-0.0053400351 -0.29582587 0.025407519 0.53095311 0.0023798663 -0.84739792 0.011133308
0.0032980535 -0.29568022 0.02909092 0.35988972 -0.0017159818 -0.93299329 0.0099820774
0.044865754 -0.29581767 0.028508011 -0.34238836 0.015539428 -0.93943 0.010967622
0.054834746 -0.29396382 0.023788625 -0.56482178 0.018152542 -0.82501328 0.010695698
-0.011710316 -0.28713897 0.021520242 0.65207827 -0.0086862827 -0.75810188 0.025499372
-0.00584538 -0.28545418 0.025255952 0.55234271 -0.006426624 -0.83359236 0.013477326
0.002259617 -0.28405681 0.028905399 0.37563953 0.010470505 -0.92670667 0.0094844783
0.045099225 -0.28518048 0.028608352 -0.35105911 0.0013764636 -0.93635231 0.010628757
0.054870289 -0.28401086 0.023813328 -0.58259958 0.0072360598 -0.81272709 0.013503681
-0.01217808 -0.27534938 0.021183826 0.67403775 0.016393546 -0.73851496 0.026068686
-0.004707993 -0.27526754 0.025912648 0.50973624 0.0031273472 -0.86032504 0.015447603
0.0034951977 -0.27375257 0.029307911 0.34517744 0.010981337 -0.93847322 0.0073374962
0.044296652 -0.27704689 0.02891342 -0.37446162 -0.0070223422 -0.92721581 0.0074701076
0.054336246 -0.27365604 0.024263781 -0.58643973 0.02181913 -0.809699 0.014242311
-0.012136128 -0.2644248 0.021286981 0.67813498 0.002522483 -0.73493302 0.031543668
-0.0048700967 -0.26512438 0.025878301 0.55873942 -0.012417305 -0.82925028 0.015988311
0.0030179261 -0.26445231 0.029215088 0.37254849 0.0013554383 -0.92801178 0.010551241
0.045582116 -0.26619819 0.028520619 -0.38457587 -0.0063296864 -0.92307168 0.0080999658
0.055286113 -0.26405162 0.02377807 -0.58189082 0.0090640942 -0.81321633 0.01422412
0.060032494 -0.26110297 0.020204365 -0.69004315 0.023652028 -0.72338176 0.028829038
-0.01212882 -0.25518492 0.021335999 0.68279546 0.0036304297 -0.73060054 0.028497709
-0.005511174 -0.25545108 0.025576463 0.55131018 0.0069898339 -0.83427107 0.013537192
0.0022915374 -0.25556016 0.029042413 0.36734316 0.010309518 -0.93002838 0.0079747932
0.046428148 -0.2551949 0.028252497 -0.39717984 -0.00026339357 -0.91774082 0.0074492795
0.056154329 -0.25379691 0.023241857 -0.59986079 -0.012628392 -0.80000472 0.013999493
-0.011271313 -0.2449908 0.022093933 0.62828177 0.01109893 -0.77790666 0.022139577
-0.0052846153 -0.24622008 0.025691917 0.55951309 0.0023717617 -0.82881808 0.014028959
0.0034809341 -0.24490267 0.029371724 0.34476358 0.012332675 -0.93860859 0.0072907833
0.043891262 -0.24266215 0.029136803 -0.33536604 -0.0093740886 -0.94204122 0.012072608
0.053918947 -0.24673121 0.024537122 -0.56893015 -0.012298701 -0.82229388 0.012138133
-0.011287287 -0.23288128 0.022055803 0.63536483 0.0018621455 -0.77220988 0.02800457
-0.0047378866 -0.23469189 0.025961179 0.54765815 -0.0021217682 -0.83669949 0.014729277
0.0027816091 -0.23389429 0.029155424 0.37734485 -0.0040261471 -0.92606401 0.010181237
0.045274969 -0.23488751 0.028597694 -0.37529638 -0.0052200351 -0.92689013 0.011424571
0.054567017 -0.23509558 0.024075007 -0.56833756 -0.010088045 -0.82273364 0.013681061
-0.011308189 -0.22665913 0.022020943 0.66322166 -0.023342343 -0.74805897 0.023070706
-0.0053425683 -0.22493027 0.025616154 0.54592496 0.0063303192 -0.83781016 0.014043835
0.0024711152 -0.22614995 0.02904838 0.36657718 -0.0096457284 -0.93033767 0.01014941
0.044653058 -0.22372569 0.02883485 -0.3461667 0.0033551967 -0.93816704 0.011900938
0.054141603 -0.22446573 0.024375916 -0.54801619 -0.0233592 -0.83614147 0.018425597
0.060187995 -0.22280408 0.020014938 -0.69910419 0.04091632 -0.71384811 0.029512065
-0.011620465 -0.21428704 0.021634161 0.67661983 0.0071121305 -0.73629826 0.028381389
-0.0038831718 -0.21536329 0.026310094 0.50352257 0.0097546643 -0.86392701 0.015094658
0.0031722859 -0.21534386 0.029178208 0.36016938 -0.011319729 -0.93281829 0.0098270942
0.045140814 -0.21555419 0.028636975 -0.36913893 -0.011644802 -0.92930126 0.0081790956
0.054446068 -0.21443439 0.024168406 -0.57283503 0.0083663194 -0.819628 0.013967912
-0.01144293 -0.20494024 0.021699952 0.66651988 -0.028244441 -0.74495202 0.027074328
-0.0050464803 -0.20398144 0.025603559 0.51797229 -0.012433518 -0.85530698 0.015710875
0.0025859119 -0.20400655 0.028923409 0.38102865 -0.00084651751 -0.92456275 0.0088826474
0.046199799 -0.20464724 0.028113307 -0.37795275 -0.017252738 -0.92566407 0.0073699169
0.056349795 -0.20624222 0.022838047 -0.61620307 -0.025713099 -0.78716755 0.016363494
-0.011767058 -0.1951755 0.021308441 0.65537828 -0.020165194 -0.75503153 0.023749324
-0.0056265378 -0.19593845 0.025227293 0.553666 -0.014831959 -0.83260673 0.014456315
0.0027720612 -0.1935885 0.028886875 0.36929646 -0.0045417603 -0.92930055 0.010074189
0.044474956 -0.19548671 0.028698875 -0.33772981 -0.018459195 -0.94106215 0.010466112
0.053877641 -0.1943301 0.024315933 -0.53833306 -0.023508722 -0.84240425 0.018165935
-0.010600519 -0.18355078 0.022154417 0.62338746 -0.035683431 -0.78109837 0.028427618
-0.0046070884 -0.18539126 0.025619652 0.54308301 -0.023268597 -0.83935654 0.013798808
0.0037873115 -0.18682179 0.02908564 0.3435863 -0.021805299 -0.93886799 0.0071749641
0.045162644 -0.18660313 0.028270964 -0.37357736 -0.012851551 -0.92751002 0.0064590978
0.055372771 -0.18513659 0.023228744 -0.57759303 -0.017549893 -0.81613618 0.014493247
-0.012017373 -0.17495953 0.020729546 0.67612368 0.0082114637 -0.73674238 0.028962059
-0.0048827073 -0.17533492 0.025319306 0.54314756 -0.020874148 -0.8393777 0.013151962
0.0038415079 -0.17528725 0.028940495 0.35697061 -0.016205931 -0.93397498 0.0079847593
0.044783689 -0.17520572 0.028296351 -0.34949961 -0.027185077 -0.93654209 0.0085357558
0.055118304 -0.17526652 0.0231821 -0.57498878 0.021559888 -0.81787711 0.015412327
-0.011413843 -0.1637271 0.021060485 0.63803959 -0.015591193 -0.76984566 0.024655966
-0.0052304044 -0.16565436 0.02498325 0.54115969 -0.0080720447 -0.84088111 0.013075673
0.0053016809 -0.16459744 0.029203864 0.31344831 -0.021323411 -0.94936579 0.010120495
0.038865991 -0.16179976 0.029868074 -0.26274365 -0.0080112554 -0.96483243 0.010935547
0.045463596 -0.16510613 0.027937824 -0.37630755 0.0024590287 -0.92649156 0.0063636955
0.055749815 -0.16393352 0.022712728 -0.58827811 -0.0029542858 -0.8086533 0.01686147
-0.011049067 -0.15331447 0.021123936 0.66641003 0.0002383305 -0.74558544 0.028139573
-0.0053016553 -0.15398546 0.024707643 0.54945755 -0.00028416078 -0.83552164 0.015420622
0.0039897072 -0.15584667 0.028662283 0.31952435 -0.017846569 -0.94740999 0.010029052
0.038840026 -0.15672892 0.029773491 -0.26534221 -0.0059650955 -0.96413589 0.011382373
0.045687512 -0.15498611 0.02758567 -0.38173315 -0.01012926 -0.9242171 0.0069371671
0.054274924 -0.15510777 0.023333762 -0.52427447 -0.013935514 -0.8514353 0.017446561
-0.011147908 -0.14622799 0.020851202 0.65980577 -0.026778152 -0.75095898 0.028638266
-0.0035385862 -0.14612249 0.025469562 0.50110197 -0.0047271191 -0.86537534 0.018134099
0.0032958519 -0.14487314 0.028243847 0.32073411 0.0057911142 -0.9471516 0.0094792005
0.038926154 -0.14417234 0.029496392 -0.26493049 0.0085212504 -0.96422988 0.01178233
0.045213453 -0.14490466 0.02756504 -0.38772783 -0.0048720827 -0.92176104 0.0069475244
0.055479024 -0.14469375 0.022484863 -0.57576734 0.013189331 -0.81750715 0.015540433
-0.010755945 -0.13875327 0.021008441 0.66256952 -0.018272862 -0.74877745 0.027628198
-0.0043045981 -0.13420588 0.024840975 0.51517314 0.026336795 -0.85668141 0.017408019
0.0048424229 -0.13526243 0.02851708 0.30257875 0.0041024489 -0.95311552 0.010710984
0.038562153 -0.13477971 0.029450169 -0.26221067 -0.010225087 -0.96495652 0.011710422
0.045574076 -0.13515778 0.027210305 -0.3939071 0.00070278475 -0.91914999 0.0064802743
0.055830084 -0.13505824 0.021978322 -0.5606184 0.0045340108 -0.82806188 0.014227024
-0.011754481 -0.12761477 0.020202884 0.69279414 -0.006373601 -0.72110724 0.027876861
-0.0055163 -0.12409329 0.024453381 0.53844756 0.017879367 -0.84246933 0.013672076
0.0058239778 -0.12504753 0.028990814 0.29509467 0.022163672 -0.95521086 0.010261362
0.037910894 -0.12411223 0.029855512 -0.24405327 0.009134829 -0.96971875 0.011734849
0.043903545 -0.12500817 0.028010964 -0.3524808 0.014907204 -0.9357003 0.0092035281
0.05498372 -0.12409052 0.022869367 -0.55223024 0.022643844 -0.8333841 0.014575135
-0.011258188 -0.11562158 0.021131391 0.68037325 0.045341749 -0.73146176 0.029300833
-0.00481454 -0.11516219 0.025130546 0.52602559 0.033758797 -0.8497985 0.013987555
0.0044265473 -0.11628681 0.028866015 0.33513004 0.024501132 -0.94185323 0.007593629
0.039281357 -0.11246632 0.029828459 -0.30133468 0.044929005 -0.95245939 0.010230787
0.045364615 -0.1154824 0.027817741 -0.38480699 0.022381293 -0.92272568 0.0071731349
0.054095779 -0.11550627 0.023592323 -0.53207898 0.015011122 -0.84656161 0.015862882
-0.011191031 -0.10545175 0.021601614 0.63967639 0.032378379 -0.76796204 0.02837134
-0.0042746733 -0.10513528 0.025758352 0.51647151 0.027304105 -0.85586894 0.014553584
0.0034821082 -0.10564119 0.028929137 0.3451032 0.037744861 -0.93780547 0.0060438039
0.046401296 -0.10523564 0.02779007 -0.41425183 0.027730284 -0.90973979 0.0068614441
0.055527996 -0.10476431 0.023095416 -0.6012913 0.0082583176 -0.79898721 0.01589375
-0.010557855 -0.096118331 0.022517091 0.57318991 0.027724477 -0.81895345 0.013282842
-0.0048533031 -0.095252775 0.025758466 0.52366942 0.010694046 -0.85185438 0.01608254
0.0029241757 -0.094810434 0.029078679 0.37349465 0.013468679 -0.92753458 0.010295444
0.04406688 -0.094672546 0.028937597 -0.35094953 0.049577814 -0.93508101 0.0084410207
0.054171111 -0.094817154 0.02431988 -0.56570572 0.021675503 -0.82432222 0.013559069
0.060113508 -0.091197714 0.020089135 -0.71662474 0.039083976 -0.69636303 0.027703872
-0.012160244 -0.087781839 0.021355351 0.65298951 0.030247895 -0.75676268 0.02702558
-0.005227814 -0.084969379 0.025846826 0.55845881 0.034937583 -0.82879621 0.013803937
0.0028191458 -0.086089037 0.029271455 0.37280208 0.033622302 -0.92730159 0.010328924
0.045236569 -0.08371602 0.028853066 -0.39050955 0.019013941 -0.92040253 0.0072662127
0.055587661 -0.084687948 0.023504181 -0.59925127 0.026940355 -0.8001076 0.016083183
-0.011812688 -0.073239982 0.022146644 0.6782009 0.051781707 -0.73304987 0.027504172
-0.004676532 -0.074497744 0.026428657 0.51975673 0.031213488 -0.85374385 0.0095947133
0.0019823804 -0.076230817 0.029284729 0.38731688 0.017432267 -0.9217819 0.011156108
0.046110962 -0.074010573 0.02885462 -0.38338509 0.028613251 -0.92314523 0.0065338514
0.055283319 -0.073946498 0.024116956 -0.62736428 0.049395461 -0.77715778 0.019402212
0.060431018 -0.071436033 0.020456288 -0.73332882 0.052420698 -0.67785013 0.028373444
-0.011919308 -0.065304205 0.0222924 0.63466108 0.035315219 -0.77198333 0.021773124
-0.00551571 -0.065225214 0.026229149 0.55182588 0.020320574 -0.83371168 0.013971968
0.001645288 -0.061637413 0.029532678 0.39345449 0.020833017 -0.91910809 0.012134967
0.046180356 -0.066078685 0.029032404 -0.39903623 0.026966808 -0.91653854 0.0073129679
0.056603003 -0.065348044 0.023570962 -0.6475575 0.029293038 -0.76145333 0.019929679
0.060391136 -0.064180098 0.020713048 -0.72653812 0.032058984 -0.68637782 0.02997401
-0.012427648 -0.053438447 0.022143545 0.64283252 0.021957308 -0.76569206 0.024237715
-0.0049879146 -0.054107759 0.026752912 0.52111501 0.028847296 -0.85299885 0.010503291
0.00027002994 -0.054451581 0.029283468 0.41928014 0.010904868 -0.90779144 0.013590612
0.046564974 -0.055365745 0.029089553 -0.38588345 0.018004455 -0.9223718 0.0076148179
0.055928774 -0.054854974 0.024249502 -0.6392799 0.023877265 -0.76860327 0.020685308
0.06071512 -0.053276863 0.020702241 -0.72485489 0.04686771 -0.68730551 0.027557978
-0.013502805 -0.044657469 0.021412537 0.67112666 0.0030354927 -0.74133646 0.023991901
-0.004269857 -0.044890571 0.027319862 0.50821924 0.020055918 -0.8609941 0.015544359
0.00075434434 -0.045411646 0.029601017 0.40097886 0.010783965 -0.91602379 0.013572359
0.047221076 -0.044238441 0.029161524 -0.39215171 0.029450839 -0.91942894 0.0074412804
0.055392653 -0.044178668 0.024879055 -0.61306226 0.014426882 -0.78990293 0.015171966
0.060956448 -0.04556343 0.020683717 -0.73333132 0.011292472 -0.67977762 0.028846215
-0.012971328 -0.033820622 0.022145364 0.65645283 0.01668686 -0.75418252 0.011021787
-0.0041987742 -0.034944668 0.027558478 0.4875828 -0.0055147316 -0.87305927 0.013854079
0.00082634669 -0.035861745 0.029809654 0.38888437 -0.00022235603 -0.92128652 0.010801827
0.047559418 -0.03570234 0.029161686 -0.39090562 0.026502267 -0.92004919 0.0084560243
0.054935358 -0.034525841 0.02531557 -0.58824199 0.01845392 -0.8084743 0.01386535
0.060909167 -0.033760391 0.021021653 -0.71706849 0.041308373 -0.69577754 0.027291806
-0.013041863 -0.025208149 0.022252087 0.66247576 0.016467955 -0.74890232 0.021923527
-0.005001124 -0.024823502 0.027307346 0.53546911 0.015945075 -0.84440434 0.013085784
0.048885707 -0.023524115 0.02881455 -0.45122015 0.012532135 -0.89232463 0.012221267
0.055503268 -0.026316531 0.025168924 -0.60600036 0.015936514 -0.79530466 0.01378765
0.060922705 -0.023240987 0.021212462 -0.71933913 0.027276695 -0.69412327 0.027412217
-0.013822991 -0.014598724 0.021731989 0.70730191 0.016334873 -0.70672274 0.02409135
-0.0043880618 -0.014947937 0.027779775 0.48797479 0.024885515 -0.87250298 0.0078322338
0.048509195 -0.016165359 0.029051291 -0.44379339 0.0028897396 -0.89612448 0.010034655
0.055447239 -0.014461245 0.025359726 -0.59627324 0.0068814121 -0.80275208 0.014561005
0.061039999 -0.013995811 0.02127666 -0.72156459 0.029729467 -0.69170856 0.027987611
-0.014217414 -0.0036958817 0.021605104 0.68312389 0.034886282 -0.72946882 0.018965326
-0.0052032806 -0.0036932509 0.027535021 0.50752574 0.023771979 -0.86130857 0.011787497
0.048036166 -0.0049277861 0.02948178 -0.42071077 0.02343194 -0.90689212 0.0081978347
0.055065218 -0.0060522528 0.02576925 -0.5889309 0.0014131258 -0.80818212 0.014536229
0.061105508 -0.0043849759 0.021393983 -0.7034421 0.027977249 -0.71020168 0.023322025
-0.013573264 0.004356686 0.022265503 0.71756208 0.021157082 -0.69617313 0.02169162
-0.0055240844 0.0051223487 0.02747488 0.53386927 0.020048559 -0.84532934 0.014726958
0.048616108 0.0046470873 0.029339358 -0.40705076 0.018215284 -0.91322392 0.0097077787
0.05563692 0.0048530423 0.025520733 -0.59697115 0.0096671199 -0.80220455 0.014023326
0.061440587 0.0034557723 0.021211784 -0.72505033 -0.011232136 -0.6886043 0.023544742
-0.014806775 0.016118715 0.021321489 0.69506514 0.013855424 -0.71881324 0.020173199
-0.005957392 0.01383222 0.027331766 0.51380396 0.0021569883 -0.85790497 0.013499388
0.047723111 0.015346091 0.029928105 -0.40507075 0.017899372 -0.91411006 0.0096098874
0.055745155 0.015339697 0.025583714 -0.59795487 -0.017182147 -0.80134565 0.014600638
0.061335403 0.016003741 0.021444032 -0.72578067 0.017199682 -0.68771118 0.024902552
-0.013386401 0.025222937 0.022691827 0.64928931 0.0082300259 -0.76049703 0.011706061
-0.0043487358 0.025651006 0.028290391 0.45542526 -0.0035634271 -0.89026695 0.009753787
0.048737645 0.024575733 0.029482938 -0.4566932 0.0034128232 -0.88961774 0.012674157
0.055908531 0.025129952 0.02554247 -0.59630734 0.026157506 -0.80232996 0.01424849
0.061261952 0.02432668 0.02160139 -0.71268761 0.015399793 -0.70131242 0.026275964
-0.013220125 0.03430092 0.022896549 0.69510925 0.010701566 -0.71882445 0.019894507
-0.006131805 0.03515109 0.027421182 0.53286886 0.0061979727 -0.84617513 0.012717513
0.049017277 0.035429277 0.02942206 -0.43448648 0.009113661 -0.9006322 0.012448205
0.0544644 0.034859154 0.026479429 -0.58896357 0.012839451 -0.80805755 0.014267431
0.061713781 0.035792444 0.021301011 -0.72826654 0.017822832 -0.68506223 0.024695635
-0.013626523 0.04376927 0.022566231 0.65966535 -0.0083784908 -0.75151271 0.02262027
-0.0059300312 0.04485425 0.027562199 0.51224989 0.010476355 -0.85877258 0.010952303
0.049144026 0.045217443 0.029386083 -0.40582964 0.0014223 -0.91394764 0.010023343
0.055656407 0.045655873 0.025861673 -0.57691759 0.024673479 -0.81642962 0.014116486
0.061344352 0.046414744 0.021674391 -0.69001234 0.0096234735 -0.72373366 0.021706564
-0.01462645 0.054752372 0.021740591 0.68979508 0.013628237 -0.72387636 0.026637634
-0.0067513213 0.055869546 0.027162598 0.57092905 0.013791432 -0.82088351 0.015797792
0.049468804 0.05590013 0.029247582 -0.42662138 0.011254647 -0.90436023 0.010288402
0.054186534 0.056441292 0.02674029 -0.58020604 0.011878188 -0.81438309 0.014185146
0.061438363 0.054220308 0.021618696 -0.72886431 -0.013025218 -0.68453425 0.022508958
-0.013497909 0.064077772 0.022746921 0.64590645 -0.0070431964 -0.76338416 0.011231801
-0.0055644969 0.064898558 0.027813304 0.51313221 -0.022097003 -0.85802507 0.011643727
0.049494136 0.063839391 0.029256171 -0.40962341 -0.017627627 -0.9120844 0.0091250641
0.055640578 0.065756597 0.025958426 -0.59778929 0.0081997337 -0.8016113 0.014671667
0.061397176 0.064488955 0.021690838 -0.74665803 -0.0086777313 -0.66515154 0.020305291
-0.014347829 0.076767981 0.022007294 0.69581914 -0.0012107575 -0.718216 0.015579239
-0.0057055932 0.076165676 0.027718667 0.52072114 0.012253399 -0.85363889 0.010718637
0.048933819 0.075272024 0.029536678 -0.43968913 0.0047572586 -0.89813745 0.012564776
0.055192411 0.073463328 0.026154507 -0.58945352 -0.012872907 -0.80769968 0.014929174
0.061515603 0.074284904 0.02156713 -0.74894351 -0.023968099 -0.66220033 0.019100793
-0.013729757 0.085854404 0.022528175 0.69502908 0.016373465 -0.71879524 0.018390095
-0.0060896273 0.084253088 0.027490979 0.5275104 -0.0056881169 -0.84952956 0.010956694
0.049176328 0.082203761 0.029387269 -0.43391171 0.0089266775 -0.90091115 0.01126092
0.053991605 0.085439153 0.026750788 -0.55924731 -0.0046019978 -0.82898808 0.01535847
0.061162297 0.085626841 0.021842355 -0.72815549 0.011631913 -0.68531322 0.022072421
-0.012573237 0.095170803 0.023398994 0.6291098 -0.0011807252 -0.77731556 0.013038277
-0.0053413566 0.09537565 0.027851701 0.47545847 0.0076676579 -0.87970471 0.008127952
0.048680361 0.095841393 0.029607024 -0.43788013 0.0077010258 -0.89900041 0.011327849
0.053639691 0.094403937 0.026951132 -0.54587555 -0.015015514 -0.83773172 0.016666781
0.062232088 0.094684064 0.020849993 -0.73375219 0.0072646937 -0.67937839 0.024409164
-0.013169651 0.10587417 0.022882609 0.66042256 -0.011733911 -0.75080246 0.010793276
-0.0059212684 0.10488634 0.027486097 0.54587144 -0.0042053545 -0.83785844 0.013244951
0.048988037 0.10556014 0.029380342 -0.44905028 -0.0083961776 -0.89346707 0.012286703
0.055004511 0.10538076 0.026091436 -0.5888415 0.0098401541 -0.80818862 0.015322774
0.061436471 0.10532305 0.021485403 -0.72107857 -0.015489548 -0.69268018 0.027824415
-0.012831676 0.11559713 0.023033032 0.62321407 -0.023635162 -0.78169405 0.014106186
-0.0038513651 0.11588506 0.028477047 0.45862788 -0.021284427 -0.88837343 0.011818658
0.047861774 0.1115229 0.029919732 -0.41315612 -0.0099978223 -0.91060531 0.0090964828
0.055565149 0.11433714 0.025708551 -0.58574224 -0.0057240096 -0.81047726 0.012947184
0.061847162 0.11535949 0.021006832 -0.73755252 -0.011637458 -0.6751895 0.023918517
-0.012855574 0.12482537 0.022921039 0.65638143 -0.0091896076 -0.75437319 0.011233852
-0.0058186799 0.12398981 0.02736133 0.54179573 -0.012217385 -0.84042144 0.01349844
0.048743214 0.1238775 0.029334564 -0.42735344 -0.02192096 -0.90381879 0.0089980457
0.055950604 0.1244186 0.025377637 -0.6011554 -0.0094979005 -0.79907566 0.015430847
0.061506491 0.12339368 0.021223972 -0.71454936 -0.025375344 -0.69912463 0.023656117
-0.011947308 0.1328377 0.023658248 0.59612095 -0.017035913 -0.80271393 0.015259173
-0.0054103769 0.13388027 0.0274543 0.52660185 -0.013404641 -0.85000634 0.011743893
0.048428129 0.13572599 0.029339461 -0.4217672 -0.017031107 -0.90654427 0.0093690082
0.05541157 0.13492759 0.025634078 -0.59751004 -0.011903094 -0.80177307 0.014629261
0.061763946 0.13629822 0.020828672 -0.74931812 0.021730468 -0.66185343 0.02656462
-0.014412477 0.14395721 0.021303296 0.71538538 -0.031386685 -0.69802481 0.025260644
-0.0049753911 0.14471708 0.027545815 0.51310331 -0.010320823 -0.8582648 0.011381249
0.048732549 0.14827724 0.029027747 -0.44869146 -0.013898667 -0.89357865 0.012527726
0.053828709 0.14386065 0.026364272 -0.53363156 -0.012968746 -0.84561765 0.014624611
0.061747938 0.14324328 0.020716753 -0.74858302 -0.026207242 -0.66252297 0.027227858
-0.012863852 0.15583165 0.022462638 0.63531828 -0.0063197049 -0.77222466 0.010309873
-0.0034817352 0.15442942 0.028163781 0.45335561 -0.007073462 -0.89130169 0.0096925423
0.000305592 0.1510614 0.029934261 0.39998782 -0.010944892 -0.91645509 0.010757976
0.047544975 0.15581723 0.029423332 -0.3967953 -0.0053447075 -0.91789156 0.0084192706
0.055253088 0.15536253 0.025399264 -0.59370512 -0.018997008 -0.80445838 0.015762916
0.061916072 0.15444247 0.020360844 -0.75090873 -0.0035930618 -0.66039622 0.030856755
-0.012910316 0.16531171 0.022210918 0.65564233 -0.015684323 -0.75490874 0.021378879
-0.0042292909 0.16403498 0.027634446 0.50512713 -0.014704804 -0.86291969 0.011083437
0.00013592115 0.16314898 0.029714471 0.41567934 -0.025834985 -0.90914422 0.012190236
0.047432233 0.16587515 0.029272974 -0.40163746 -0.003141884 -0.91579342 0.0069649569
0.055285364 0.16348815 0.025213046 -0.58603656 -0.015564486 -0.81013513 0.012979222
0.061312117 0.16215299 0.020761117 -0.71736193 -0.042747632 -0.69538796 0.026766879
-0.01298535 0.17638491 0.021917695 0.70331728 -0.014644243 -0.71072525 0.020913277
-0.0045597884 0.17449602 0.027253404 0.5082072 -0.02556411 -0.86085534 0.010569968
0.0012053202 0.17524812 0.029798985 0.38030866 -0.023587443 -0.92455882 0.010673837
0.046842929 0.17259939 0.029345 -0.40476626 -0.021171939 -0.91417509 0.0080618532
0.055651218 0.17413716 0.024721125 -0.60263431 -0.0135827 -0.79790187 0.016541325
0.060845342 0.17604347 0.020856535 -0.75148302 -0.015087495 -0.65957987 0.027083453
-0.013123158 0.18341015 0.021580311 0.69902438 -0.0035727096 -0.71508884 0.024149181
-0.0050880127 0.18320313 0.026788116 0.53685582 -0.016254712 -0.84351742 0.013245354
0.00072370266 0.1855644 0.029456856 0.40127888 -0.018303135 -0.91577303 0.012079595
0.047389995 0.18495464 0.028823489 -0.41210744 -0.01743729 -0.91096842 0.0078025633
0.055208355 0.1854421 0.024790704 -0.63457114 -0.01868077 -0.77263862 0.020743685
0.06076901 0.18633343 0.020661026 -0.73133564 -0.017180605 -0.68180132 0.02961247
-0.011845537 0.19397746 0.02245006 0.62870711 -0.044785533 -0.77635145 0.022010298
-0.0054744496 0.19490133 0.026332006 0.51036012 -0.01574076 -0.85981673 0.011964773
0.0016169868 0.19569075 0.029510321 0.39470288 -0.030130349 -0.91831464 0.012389032
0.047139384 0.19580252 0.028722484 -0.40364894 -0.0022320724 -0.91491127 0.0073589738
0.056233555 0.19467895 0.023967769 -0.65633142 -0.021475183 -0.75416702 0.019979874
0.060928304 0.1936184 0.020331332 -0.75113142 -0.04925289 -0.65831286 0.029029874
-0.012312242 0.20430034 0.021768386 0.6594097 -0.022160197 -0.7514571 0.021546561
-0.0052937176 0.2040298 0.026199928 0.53771609 -0.035909839 -0.84236091 0.013332545
0.0028174426 0.20586643 0.029617131 0.38183856 -0.019869516 -0.9240154 0.0087727774
0.047109529 0.2046672 0.028587658 -0.39620057 -0.017730318 -0.91799283 0.008602351
0.054823164 0.20374292 0.024564097 -0.62598991 -0.054273903 -0.77794021 0.017913666
0.060494155 0.20312819 0.020453822 -0.71993423 -0.064347483 -0.69105285 0.024174318
-0.011756626 0.21436179 0.021940012 0.65661645 -0.030481843 -0.75360847 0.026403731
-0.0050397022 0.2146327 0.026048053 0.51258516 -0.042835481 -0.85756725 0.016527519
0.0033117679 0.21534859 0.029515874 0.36121011 -0.022178829 -0.93222064 0.010222972
0.044908315 0.21549821 0.029010624 -0.37628064 -0.017550291 -0.92633951 0.0080109965
0.056654263 0.21485357 0.023067446 -0.66494274 -0.061648704 -0.74434578 0.021710202
-0.011266593 0.22411904 0.022057533 0.62434208 -0.021534186 -0.78085417 0.020980505
-0.0046718051 0.22565252 0.025936257 0.53332084 -0.04258088 -0.84484071 0.012900469
0.0028465793 0.22594757 0.029112654 0.35056773 -0.031869512 -0.93599498 0.0085697956
0.045302689 0.22525837 0.028609538 -0.37323114 -0.036477774 -0.92702097 0.008575472
0.053072803 0.22405167 0.024981361 -0.54502928 -0.059389111 -0.83631092 0.013839246
-0.011759575 0.23368423 0.021292649 0.6604479 -0.024497066 -0.75047219 0.029097492
-0.0042847125 0.23523815 0.025856758 0.52004832 -0.019670356 -0.85391027 0.014732626
0.0041854209 0.23546532 0.029236522 0.3412773 -0.025858026 -0.9396069 0.0073884865
0.04483676 0.23413248 0.028455103 -0.33932349 -0.048295114 -0.9394291 0.0090644071
0.054413013 0.23601097 0.023877736 -0.56851417 0.00033658365 -0.82267338 0.011856351
-0.011245384 0.24490984 0.021305962 0.66059077 -0.034129266 -0.74997002 0.030203491
-0.0065609138 0.24539508 0.024316302 0.55886424 -0.032306761 -0.82862955 0.015456353
0.0034501888 0.24410994 0.028759765 0.36224928 -0.04556518 -0.93096685 0.010207782
0.038959697 0.24398546 0.029976755 -0.28628355 -0.039762501 -0.95731956 0.010591654
0.044545207 0.24340911 0.028225075 -0.36257836 -0.034382343 -0.93131888 0.0090472447
0.054955807 0.24517995 0.023241639 -0.56090164 0.00049088092 -0.82788229 0.012376654
-0.01135836 0.25450844 0.020817682 0.67253786 -0.036795389 -0.73914742 0.032571103
-0.005929892 0.25601628 0.024281101 0.53970116 -0.00091121695 -0.84185612 0.015107015
0.0046215961 0.25482753 0.028759075 0.3189539 -0.02301191 -0.94749081 0.0099831298
0.039435644 0.25578573 0.029472807 -0.26296031 -0.0020883949 -0.96480447 0.014209255
0.045896553 0.25542256 0.02745143 -0.40205976 -0.0052456534 -0.91559839 0.007750195
0.054808225 0.25459594 0.02300434 -0.57601792 -0.012676685 -0.81733882 0.015088766
-0.010406784 0.26103151 0.02140788 0.64073241 -0.032116786 -0.76709223 0.027830452
-0.0048712878 0.26579842 0.024549132 0.54024458 0.00023940938 -0.84150809 0.017862624
0.0051344754 0.26480785 0.028623953 0.31398439 0.0109968 -0.94936448 0.0099661183
0.038746573 0.26635045 0.02939472 -0.2766836 0.010458743 -0.96090418 0.011971207
0.044167884 0.26515156 0.027753482 -0.36269251 -0.00047955333 -0.93190873 0.0092569478
0.05371397 0.26533237 0.023313722 -0.52592349 0.0030049288 -0.85052657 0.015566449
-0.011297448 0.27609736 0.020707991 0.65329307 0.038059048 -0.75614798 0.027971616
-0.0045545297 0.27554089 0.024911122 0.54000676 0.02395713 -0.84131962 0.01554009
0.0041599055 0.27505231 0.028482307 0.31222361 0.02305253 -0.94972891 0.0096349576
0.038508192 0.27507874 0.029622525 -0.27444708 -0.0065150186 -0.96158016 0.011610791
0.044926178 0.27532244 0.027588634 -0.35332927 0.0085146157 -0.93546027 0.0092118913
0.052733995 0.27444187 0.024077725 -0.50501943 -0.003780555 -0.86309963 0.018079134
-0.011144866 0.28474292 0.021143546 0.64986837 0.0038590727 -0.76003695 0.029700143
-0.004420259 0.28526172 0.025265351 0.51779574 -0.0091620293 -0.85545528 0.011852368
0.004798606 0.28433555 0.028912667 0.30752218 0.0070944154 -0.95151448 0.0093230419
0.03863246 0.28217411 0.029776929 -0.24761188 0.015417085 -0.96873665 0.012065625
0.044215731 0.28527662 0.028153285 -0.3428112 0.020761276 -0.93917495 0.0081343409
0.056249902 0.28554943 0.022228034 -0.64569008 0.00069055881 -0.76359928 0.02706873
-0.011282491 0.29607749 0.021411816 0.62996572 0.026042551 -0.77618623 0.027935103
-0.0039197342 0.29584375 0.025836214 0.51175445 0.037797242 -0.85829997 0.015205912
0.0045794453 0.29283392 0.029077554 0.31834278 0.017940022 -0.94780588 0.0093214745
0.044029143 0.2944243 0.028549245 -0.35483575 0.021577079 -0.93467963 0.0093422933
0.055426229 0.29419884 0.023014087 -0.61045432 0.021305267 -0.79176491 0.020364078
-0.011633558 0.30439934 0.021379624 0.66704351 0.038525544 -0.74402195 0.028260818
-0.0058540422 0.30539763 0.025086218 0.54468745 0.041740622 -0.83759969 0.012031159
0.0037759996 0.30463505 0.02915981 0.33749321 0.011293371 -0.94126022 0.0077923834
0.044933941 0.30494869 0.028486252 -0.34695634 0.03372547 -0.93727469 0.0098674512
0.054785866 0.30466622 0.023661142 -0.56576002 0.034393102 -0.8238523 0.011794238
-0.012410157 0.31567734 0.021014361 0.69649231 0.051088586 -0.71574324 0.027739696
-0.0054595117 0.31689259 0.025574381 0.54788631 0.029483596 -0.83603299 0.012533166
0.0023499818 0.31546372 0.028999355 0.39837956 0.04714971 -0.91600794 0.01085509
0.047642663 0.31448719 0.027764911 -0.42093322 0.022260824 -0.90681851 0.0081595397
0.055226203 0.31447604 0.023629703 -0.57895195 0.031567238 -0.81475031 0.012452063
-0.012311261 0.32736346 0.021433426 0.67408448 0.026930582 -0.73816323 0.026197961
-0.0049957149 0.32552162 0.026024565 0.53178304 0.02744052 -0.84643596 0.012019576
0.0017998415 0.32544792 0.029061105 0.40792179 0.037052982 -0.91226476 0.011805738
0.046078939 0.32541218 0.028578296 -0.39013794 0.016987907 -0.9205997 0.0085586002
0.053956419 0.32392836 0.024673963 -0.56704378 0.0083833104 -0.82364494 0.018229021
-0.011965463 0.33381063 0.021925744 0.64766753 -0.0065273615 -0.76189506 0.019140616
-0.0036986514 0.33588895 0.026953509 0.49829376 0.036596272 -0.86623555 0.013915801
0.0021324276 0.3355906 0.029377881 0.38738257 0.029133731 -0.9214586 0.010470954
0.046913333 0.33425272 0.028490873 -0.41740692 0.024043275 -0.90840149 0.0082787611
0.0556513 0.33510613 0.023800928 -0.64836341 0.057097558 -0.75918686 0.019406803
0.060219094 0.3307448 0.020416211 -0.73359495 0.032805596 -0.67879468 0.031478699
-0.012648978 0.34489775 0.02161352 0.67553377 0.015696168 -0.73716205 0.026718471
-0.0058190222 0.34410664 0.026028795 0.56095761 0.011022822 -0.82777113 0.01514822
0.0019774195 0.34493354 0.029530631 0.37668818 0.0036573587 -0.92633289 0.0099968007
0.046137504 0.34466711 0.029027484 -0.39310628 0.039735485 -0.91863412 0.0082280226
0.054819483 0.34463897 0.02467352 -0.63963562 0.049108926 -0.7671079 0.019388296
0.06093289 0.34225044 0.020101486 -0.74680996 0.017414156 -0.66480935 0.025944471
-0.0126409 0.355746 0.021869183 0.70721614 -0.00062972994 -0.70699722 0.023884939
-0.0059857327 0.35487336 0.026147924 0.55951792 0.016837031 -0.82864726 0.014427359
0.0015810002 0.3551386 0.029596496 0.3690978 0.0079614129 -0.92935646 0.0096522719
0.047550034 0.35647205 0.028714247 -0.4359794 0.015436927 -0.89982432 0.010914116
0.055473976 0.35476798 0.024535913 -0.64453173 0.024022974 -0.76420009 0.018522881
0.061170474 0.35780528 0.020244183 -0.74979275 0.041337755 -0.66038013 0.026806219
-0.012399524 0.36534697 0.02228309 0.66188365 0.01826312 -0.74938411 0.021189734
-0.0046743914 0.36357814 0.026996627 0.50247729 0.011943037 -0.86450797 0.013320487
0.0014459828 0.36358902 0.029701862 0.39247274 0.019666407 -0.91955334 0.011081092
0.046596412 0.36405605 0.029149853 -0.39351839 0.021501191 -0.91906524 0.0082198521
0.055358976 0.36495492 0.024813527 -0.60903889 0.012575738 -0.79304069 0.015654789
0.060605757 0.3661263 0.02093347 -0.72775728 0.033537157 -0.68501437 0.022857821
-0.012312638 0.37513697 0.022575755 0.60783553 0.02076456 -0.79379141 0.016580278
-0.0040356158 0.37630743 0.027558092 0.49208587 0.012544113 -0.87045634 0.014503239
0.00067334081 0.37591463 0.029691476 0.41580367 0.024162875 -0.90913337 0.012279772
0.047174744 0.37312323 0.029194083 -0.39970091 0.017114533 -0.91648591 0.0082860356
0.054714568 0.37550598 0.025377994 -0.60792625 0.031353168 -0.79337424 0.015869286
0.061161626 0.37577486 0.0206472 -0.73503691 0.052265126 -0.67600971 0.026798908
-0.013394731 0.38513595 0.021805249 0.70277935 0.016966883 -0.71120554 0.021146372
-0.0049542505 0.3856453 0.027224502 0.51759565 0.025640758 -0.85524112 0.012091866
0.00095291622 0.38458833 0.029908234 0.39883864 0.0042907228 -0.91701114 0.011817609
0.047395654 0.38365224 0.029262086 -0.39963141 0.0038085016 -0.916668 0.0076292437
0.056098916 0.38559145 0.024670605 -0.61925364 0.022270476 -0.78487504 0.01404261
0.060772553 0.38532484 0.021188522 -0.72489679 0.01244349 -0.68874508 0.030991197
-0.011975328 0.39359763 0.023174183 0.6513828 0.012437371 -0.75864726 0.022385459
-0.0047004973 0.39527655 0.027508866 0.50945908 0.014500363 -0.86037272 0.012308209
0.048043869 0.39206654 0.029206365 -0.43886036 0.0048481133 -0.89854217 0.0094295815
0.056600779 0.39501458 0.024492804 -0.63763762 0.01833551 -0.7701183 0.02024168
0.060853746 0.39586341 0.021286111 -0.71389955 0.0162251 -0.70006013 0.027455401
-0.012349475 0.4052532 0.023001095 0.63241136 0.011044388 -0.77455401 0.015409676
-0.0056735743 0.40492773 0.027124967 0.51643699 0.013514186 -0.85621852 0.012113696
0.0001584009 0.40609995 0.029947726 0.38370496 -0.010571372 -0.92339516 0.011300906
0.048079155 0.40597022 0.029342538 -0.44633678 0.014689599 -0.89474452 0.010355108
0.054941572 0.40439937 0.025657738 -0.60298955 0.0004143765 -0.79774898 0.014313453
0.061036326 0.40533432 0.021271123 -0.69084007 0.020162832 -0.7227264 0.022746451
-0.013830061 0.41452175 0.021869423 0.71264601 -0.0039760652 -0.70151258 0.02144431
-0.0041779154 0.41509736 0.02802977 0.43855277 -0.013971768 -0.89859676 0.010921351
0.048176281 0.41405046 0.029386606 -0.42262205 0.014333091 -0.90619266 0.011497113
0.055596273 0.41532618 0.025486514 -0.58973688 0.009114448 -0.80754399 0.014561875
0.061227739 0.4135251 0.02122811 -0.7108717 -0.019391743 -0.70305431 0.02277346
-0.013895148 0.42407915 0.021977432 0.6953187 -0.0042401189 -0.71868896 0.023167657
-0.0052120457 0.42407009 0.027601168 0.4909924 0.0018485009 -0.87116188 0.014381511
0.048688609 0.42624536 0.029313264 -0.39704454 0.020189501 -0.91757727 0.0085263094
0.054502908 0.4272826 0.026087532 -0.58564562 0.014037778 -0.81044561 0.014884589
0.061976582 0.42489588 0.020716667 -0.74835497 -0.021372313 -0.66295409 0.028042275
-0.012450232 0.43534955 0.02335573 0.61527675 -0.012029661 -0.78821933 0.017086081
-0.0052782581 0.43427849 0.027654512 0.48361364 0.011039819 -0.87521201 0.007819497
0.048528261 0.43349436 0.029455425 -0.40091729 0.011826693 -0.91603792 0.0095760366
0.054862622 0.43528074 0.026007257 -0.58433712 0.011347804 -0.81143165 0.015909158
0.061138406 0.43390617 0.021554805 -0.68933046 0.0066911629 -0.72441608 0.022657501
-0.01319555 0.44489029 0.022775067 0.66246903 0.0051224283 -0.74907178 0.024794051
-0.0065581067 0.44444039 0.027062865 0.53093469 0.022895571 -0.84710336 0.015111157
0.04836962 0.44697958 0.029646158 -0.41642794 0.015751002 -0.90903234 0.0091577135
0.054303985 0.4437623 0.026404575 -0.58045834 -0.0013899658 -0.81428874 0.015156917
0.061357848 0.44595367 0.021471571 -0.72753048 0.038639564 -0.68498635 0.022770461
-0.012106278 0.45542049 0.023771418 0.60143685 0.041079953 -0.79786348 0.015757661
-0.0046994244 0.45527014 0.028130013 0.45038158 0.025768373 -0.89246428 0.009869406
0.049310692 0.45761132 0.029233694 -0.43802944 0.01911192 -0.89875752 0.010869697
0.055540565 0.45411301 0.025855565 -0.60357106 -0.0107244 -0.7972371 0.013817306
0.062396165 0.45598084 0.020635094 -0.77369249 0.032096699 -0.63274783 0.023610156
-0.013937907 0.46531126 0.022265723 0.68968809 0.0010134311 -0.72410589 0.022409696
-0.0060842689 0.46568266 0.02745698 0.51942879 0.015760185 -0.85436845 0.012519591
0.049332447 0.46763486 0.029267194 -0.43825191 0.011636531 -0.89877689 0.011945188
0.05472789 0.46522287 0.026368516 -0.58848745 0.0076487679 -0.80847013 0.013893631
0.061230194 0.46511459 0.021741297 -0.7156952 0.007065359 -0.69837707 0.022166541
-0.014358439 0.47500563 0.021952845 0.71384645 -0.039650571 -0.69917887 0.027895777
-0.0042449473 0.47487384 0.02845264 0.45697829 -0.067945957 -0.88687891 0.019967645
0.04955728 0.47398868 0.029165307 -0.44980851 -0.050225332 -0.89171165 0.018359616
0.054920111 0.47408971 0.026226275 -0.58396703 -0.047921367 -0.81036174 0.019012628
0.061571289 0.47589284 0.021469407 -0.70987403 -0.064216927 -0.70139503 0.027483964
-0.014120937 0.48441312 0.022198787 0.67387283 -0.17468317 -0.71790057 0.044108585
-0.0044949162 0.48498678 0.028347418 0.43637413 -0.2693392 -0.8585068 0.061776716
0.048503503 0.48664013 0.029755071 -0.42903915 -0.25676745 -0.866023 0.059544418
0.055950437 0.48453391 0.025691207 -0.5814414 -0.23336335 -0.77940196 0.052256729
0.061479133 0.48390952 0.021577211 -0.68598008 -0.18904874 -0.70263201 0.045534819
-0.013651078 0.4964053 0.02265773 0.52660173 -0.54889345 -0.64915842 0.085418217
-0.006248646 0.49509197 0.027448298 0.46405444 -0.41862091 -0.78064722 0.072099604
0.048266094 0.49010867 0.029889578 -0.37945077 -0.31696248 -0.86922491 0.069420494
0.054729927 0.49493906 0.026420962 -0.4727729 -0.43570706 -0.76592767 0.084248699
0.061454002 0.4951731 0.021635115 -0.63409716 -0.46292019 -0.61937523 0.072610624
-0.01254296 0.5 0.022069205 0.4995698 -0.64384067 -0.57956803 0.094891712
-0.0065069259 0.5 0.021784827 0.37250391 -0.7810964 -0.50112796 0.096405216
0.0038290522 0.5 0.023743162 0.19247554 -0.78461635 -0.58934736 0.091478579
0.014486096 0.5 0.02488579 0.082839869 -0.84313786 -0.53127784 0.089832425
0.026072836 0.5 0.023859806 -0.013228207 -0.8980338 -0.43972754 0.076143511
0.036537472 0.5 0.024748655 -0.13027722 -0.76602161 -0.62947494 0.086992219
0.04559559 0.5 0.026915519 -0.33007199 -0.60307157 -0.72619361 0.081845976
0.054695845 0.5 0.023236213 -0.45078167 -0.67686796 -0.58193278 0.097056061
0.060942307 0.5 0.021252891 -0.60767251 -0.51931262 -0.60087329 0.07782159
-0.053035628 -0.49066058 0.033737227 0.22866037 0.84002841 -0.49200282 0.085665874
-0.044106584 -0.4925456 0.035509281 0.17578298 0.82431197 -0.5381543 0.08964508
-0.034458291 -0.49458241 0.034939978 0.15925087 0.89149678 -0.42411402 0.078520805
-0.024743639 -0.49649912 0.035780743 -0.016143832 0.91787404 -0.39654312 0.10006774
-0.014367638 -0.49693108 0.034968328 -0.039361283 0.9171353 -0.39662781 0.15405664
-0.0048132404 -0.49693108 0.034855653 0.0029503289 0.92343909 -0.38373381 0.17270094
0.0055554612 -0.49693108 0.035502154 0.046481904 0.86455864 -0.50037771 0.16888867
0.015307515 -0.49693108 0.03432554 0.039900895 0.88038349 -0.47258115 0.14073209
0.024173137 -0.49693108 0.03531684 -0.087906241 0.83947909 -0.53623444 0.12848511
0.033941176 -0.49693108 0.034567986 -0.10116565 0.86956865 -0.48333827 0.13847347
0.04517033 -0.49689859 0.035708301 0.013777674 0.93289179 -0.35989305 0.16343342
0.05513563 -0.49665651 0.03549464 0.15810525 0.94008255 -0.30207235 0.16717266
0.064509042 -0.49655789 0.035308212 0.17279419 0.9157095 -0.36279234 0.14381109
0.074376613 -0.49626976 0.034757461 0.013804369 0.90927488 -0.41596714 0.088551335
0.084199034 -0.49618593 0.034355547 -0.020105084 0.80270827 -0.5960328 0.064385697
0.094793595 -0.49602094 0.034539785 -0.055231221 0.84411114 -0.53331596 0.06341584
0.10585617 -0.49468237 0.036017828 -0.035091989 0.77645028 -0.62920076 0.081235334
0.11520979 -0.49515295 0.034724489 -0.010884558 0.83526212 -0.54974419 0.059925411
0.12524474 -0.49446902 0.035040174 -0.0055074827 0.83321118 -0.55292749 0.054555535
0.13612011 -0.49476185 0.033876918 0.0054422836 0.85384828 -0.52049351 0.050678164
0.14471391 -0.49383032 0.034433931 -0.020960446 0.81746566 -0.5755958 0.06328918
0.15461706 -0.49378493 0.033710036 -0.054553732 0.86112291 -0.50546139 0.038533945
0.16669197 -0.49329469 0.033262298 -0.2244928 0.80005175 -0.55634558 0.066830136
0.17508198 -0.49332863 0.032564722 -0.47149938 0.74409264 -0.47330174 0.079547949
0.18127444 -0.49136791 0.032606162 -0.63352352 0.61473048 -0.46984509 0.076984532
-0.1018515 -0.48035499 0.034633595 0.21298979 0.81533945 -0.53838366 0.080002062
-0.094924755 -0.48181731 0.035229228 0.1427761 0.81885689 -0.55595708 0.10349646
-0.084596366 -0.48399776 0.034157615 0.15388094 0.85372609 -0.497466 0.088043518
-0.075222768 -0.48597661 0.035469919 0.12973011 0.85501045 -0.50212258 0.076574437
-0.06526009 -0.48807985 0.035136003 0.23143405 0.83123666 -0.50545412 0.088451929
-0.057624709 -0.48969179 0.035713185 0.14891674 0.81713629 -0.55687714 0.0951984
0.12703602 -0.48971367 0.039923742 0.021950271 0.60213584 -0.79809195 0.062509254
0.14717151 -0.48902544 0.039047834 0.03441361 0.61956626 -0.78418958 0.056015983
0.15637307 -0.48929667 0.03806182 -0.058053572 0.61831123 -0.7837863 0.053984385
0.16342679 -0.48807922 0.038731292 -0.21621323 0.57271683 -0.79072583 0.062843509
0.17614029 -0.48578033 0.03843325 -0.51056892 0.5318436 -0.67561966 0.089109436
0.18241255 -0.48496023 0.034147985 -0.69068903 0.40164167 -0.60135913 0.087118089
-0.14387088 -0.47148427 0.0346452 0.23882692 0.82651991 -0.50973183 0.088364094
-0.13435346 -0.47349349 0.035614938 0.20559375 0.8257606 -0.52521485 0.075714096
-0.12514089 -0.47543839 0.034307994 0.23426916 0.89769602 -0.37317544 0.060166787
-0.11435537 -0.47771528 0.034369674 0.20097832 0.88722461 -0.41525924 0.085622847
-0.10712489 -0.47924173 0.035615705 0.13035437 0.81211221 -0.56875426 0.094765581
0.18253472 -0.47422335 0.034401514 -0.82681751 0.13172121 -0.54682934 0.064145796
-0.18145244 -0.46096915 0.034680489 0.65829819 0.64192641 -0.39315909 0.17249703
-0.17539407 -0.46461561 0.034726895 0.53313309 0.74550116 -0.39999652 0.16603954
-0.16698964 -0.46660361 0.034365624 0.4192881 0.80182225 -0.42576826 0.16567358
-0.15506062 -0.46912196 0.036351874 0.28053585 0.6759752 -0.68143761 0.13786697
0.18242431 -0.46562001 0.03461244 -0.77120501 0.059335705 -0.63381547 0.066943623
-0.18290135 -0.45648226 0.034476306 0.91021395 -0.07394971 -0.40748259 0.21523309
0.17954387 -0.45546636 0.038789365 -0.68239951 -0.0043357597 -0.73096651 0.06834624
0.18274014 -0.45520544 0.034043211 -0.82600945 -0.019040635 -0.56333458 0.072837651
-0.18047529 -0.4482891 0.033190094 -0.6868856 0.66111237 0.30185866 0.19257352
-0.17521042 -0.44587472 0.03432956 -0.54540855 0.77723002 0.31375632 0.18563056
-0.16441749 -0.44338214 0.035739724 -0.32779816 0.65687805 0.67901379 0.14519478
-0.15368102 -0.44111556 0.035399664 -0.25651979 0.71472287 0.65066803 0.13166098
-0.14895111 -0.440117 0.035504274 -0.18254746 0.70972049 0.68042135 0.10935171
0.17938952 -0.44915321 0.038943719 -0.70523357 -0.0026515103 -0.70897007 0.064060055
0.18244749 -0.44407031 0.034884863 -0.77038586 -0.019504916 -0.63727951 0.061056554
-0.14309208 -0.43888012 0.036231171 -0.21310206 0.78337801 0.5838719 0.093153082
-0.13607849 -0.43739942 0.033571716 -0.15892223 0.89190865 0.4233706 0.092532419
-0.12634663 -0.43534493 0.033685487 -0.14933349 0.88819778 0.43451607 0.072793864
-0.11676113 -0.43332136 0.036108997 -0.13427231 0.8125183 0.56726098 0.083462857
-0.10549385 -0.43094268 0.035585288 -0.19800088 0.82155257 0.53464681 0.093166992
0.1796208 -0.43611819 0.038712453 -0.66963011 -0.19128455 -0.71763903 0.072540849
0.18271571 -0.43442509 0.034520846 -0.72241205 -0.21154399 -0.65830839 0.076017573
-0.10035796 -0.42985842 0.031272035 -0.20550771 0.91709155 0.34162802 0.066260062
-0.095556982 -0.4288449 0.035167787 -0.19700293 0.82565957 0.52865493 0.10297777
-0.084595047 -0.42653075 0.034258615 -0.17534404 0.84509403 0.50504512 0.089961112
-0.076026037 -0.42472172 0.035002004 -0.17169985 0.90152961 0.39719462 0.067244165
-0.064939305 -0.4223811 0.035641216 -0.18962279 0.85703135 0.47910386 0.083018623
-0.056436341 -0.42058611 0.03486494 -0.12194741 0.83448839 0.5373621 0.08804433
0.12944277 -0.42052263 0.039444666 -0.0092675863 0.63712597 0.77070397 0.066020541
0.13133314 -0.42035097 0.039126165 0.0041909409 0.64529443 0.76392239 0.066501334
0.14644553 -0.42112079 0.038722135 -0.013799653 0.63208812 0.77477366 0.053866547
0.1553614 -0.42105976 0.03796846 0.067462377 0.59514093 0.80078465 0.052826215
0.16680349 -0.42203996 0.038059905 0.28219232 0.59411591 0.75325555 0.069825269
0.17295018 -0.42173895 0.037281387 0.41334707 0.55397314 0.72267419 0.084435023
0.18224756 -0.42386326 0.034358624 0.71586257 0.45409751 0.5304113 0.087203421
-0.052417178 -0.41973758 0.035603855 -0.21077666 0.80635536 0.55259782 0.080556259
-0.044938471 -0.41815877 0.035846505 -0.2069492 0.8195172 0.53438151 0.093150593
-0.035338283 -0.41613209 0.034792878 -0.093778409 0.91834152 0.38451862 0.077239469
-0.025273219 -0.4141565 0.03448873 0.045815449 0.88124764 0.47042903 0.11284091
-0.014464787 -0.41359764 0.035975639 -0.16197118 0.80179554 0.57522976 0.16943549
-0.00495661 -0.41359761 0.034395806 -0.30120072 0.56874883 0.76537752 0.17790854
0.0047971089 -0.41359761 0.034658272 -0.24582919 0.42899838 0.86921132 0.15667245
0.014704792 -0.41359761 0.034938406 -0.05442429 0.3114019 0.94871855 0.13087657
0.02513718 -0.41359761 0.03598804 -0.028193284 0.29567227 0.95487332 0.11266859
0.034808509 -0.41364121 0.035200041 0.16702269 0.37017912 0.91382205 0.11654013
0.045190431 -0.41370445 0.036100101 0.18588668 0.44614401 0.8754437 0.15787956
0.054384444 -0.41366598 0.034276173 0.17363121 0.56060559 0.80967504 0.15820551
0.064750321 -0.41404983 0.035479899 0.023777978 0.65889776 0.75185657 0.18140578
0.074456662 -0.41432613 0.036532532 0.016229272 0.83760613 0.5460335 0.09220878
0.085543849 -0.41398308 0.033492971 0.03567937 0.89836895 0.43779024 0.067400619
0.095647469 -0.41526517 0.036046907 0.035865128 0.81981474 0.57150465 0.056682702
0.10659846 -0.41640064 0.036712386 -0.01110212 0.70095712 0.713117 0.068568088
