# .PCD v0.7 - Point Cloud Data file format
VERSION 0.7
FIELDS x y z normal_x normal_y normal_z curvature
SIZE 4 4 4 4 4 4 4
TYPE F F F F F F F
COUNT 1 1 1 1 1 1 1
WIDTH 588
HEIGHT 1
VIEWPOINT 0 0 0 1 0 0 0
POINTS 588
DATA ascii
0.0066733775 -0.19618562 0.43569958 0.00096800557 0.15527064 -0.98787153 0.00031047172
0.015651206 -0.19507629 0.43586001 0.0012543969 0.15509371 -0.98789895 0.00014996019
0.024263488 -0.19535953 0.43581906 -0.0011716428 0.15386668 -0.98809093 0.00015746719
0.034130819 -0.19431731 0.43596974 -0.00047865545 0.15408988 -0.98805672 0.00015467944
0.045826446 -0.1950261 0.43586728 0.0014522134 0.15267566 -0.98827529 8.9888323e-05
0.054524165 -0.19534913 0.43582052 -0.007645953 0.15255521 -0.9882654 0.00038864184
0.065545514 -0.19569054 0.43577117 -0.21398605 0.16513573 -0.96277732 0.035242695
0.072939493 -0.19286211 0.43618011 -0.31550494 0.13185297 -0.93971884 0.053065728
0.084456846 -0.19506502 0.434111 -0.75349265 0.081057861 -0.65244037 0.080181472
-0.083414488 -0.18391117 0.43580148 0.68273938 0.17731138 -0.7088213 0.081454434
-0.075165451 -0.18394773 0.43746904 0.36573225 0.19317724 -0.91045177 0.065712705
-0.065779932 -0.18252496 0.43767476 0.21532179 0.11120562 -0.97019058 0.043356445
-0.053571332 -0.18482094 0.43734279 0.0067084888 0.14379996 -0.98958403 0.00015574368
-0.045856763 -0.18436159 0.43740925 8.3398373e-07 0.14314659 -0.98970145 0
-0.035636507 -0.18570884 0.43721446 1.7100749e-05 0.14311223 -0.98970652 0
-0.024595974 -0.18524504 0.43728152 -6.5287622e-06 0.14321749 -0.98969126 0
-0.012404779 -0.18340093 0.4375481 -3.5414696e-06 0.1431368 -0.98970294 3.9455139e-05
-0.0044919956 -0.18670022 0.43707108 1.6147147e-05 0.14364175 -0.98962969 0
0.0065812934 -0.18443866 0.43739805 -1.0086631e-05 0.14297917 -0.98972571 7.2166702e-05
0.015942488 -0.18653046 0.43709564 6.0674975e-06 0.14336061 -0.98967052 0
0.024875283 -0.18444531 0.43739712 1.3057418e-06 0.1431551 -0.98970026 0
0.034060333 -0.18673231 0.43706647 -0.00012816048 0.14332131 -0.98967618 0
0.045713905 -0.18264881 0.43765694 8.4389967e-06 0.14311481 -0.9897061 0
0.054651305 -0.18475999 0.43735167 -1.4563339e-05 0.14308293 -0.98971075 8.3864852e-06
0.064085409 -0.18383594 0.43748522 -0.13198511 0.15958881 -0.97832066 0.019826451
0.074771471 -0.18439147 0.43740487 -0.36454558 0.19873306 -0.90973163 0.063576929
0.084797323 -0.18527503 0.43457499 -0.81558073 0.10393431 -0.56923252 0.07583078
-0.084943734 -0.1733086 0.43716499 0.68800122 0.15425766 -0.70912552 0.089155696
-0.074876629 -0.17537852 0.43870807 0.4254024 0.13194643 -0.89533395 0.080478899
-0.065309398 -0.17458791 0.43882239 0.13526635 0.14702633 -0.97983986 0.022928312
-0.055023763 -0.17377089 0.43894053 0.0070787398 0.14349687 -0.98962545 0.000190483
-0.045185495 -0.1743056 0.43886319 -1.346815e-05 0.14310966 -0.98970687 2.4096098e-05
-0.035780713 -0.17520109 0.43873373 1.1355671e-06 0.14303185 -0.98971808 0.00010564465
-0.025611855 -0.17567843 0.43866473 -3.6049853e-06 0.14322899 -0.98968959 0
-0.015172611 -0.17329544 0.43900928 -4.0175987e-06 0.14313704 -0.98970288 2.9718498e-05
-0.0033335586 -0.17404591 0.43890071 1.0443518e-06 0.14313801 -0.98970276 0
0.0043953452 -0.17376792 0.43894091 2.6804012e-06 0.1431428 -0.98970205 0
0.014876124 -0.17530718 0.43871838 -2.013104e-06 0.14301574 -0.98972034 5.8206904e-05
0.024101457 -0.17420107 0.43887833 -6.9150169e-06 0.14314507 -0.98970169 0
0.036227036 -0.17514217 0.43874219 1.6305705e-05 0.14316836 -0.98969835 0
0.044068672 -0.17809255 0.43831563 3.4007489e-06 0.14313194 -0.9897036 0
0.054615721 -0.17473827 0.43880066 2.9387369e-05 0.14310686 -0.98970723 0.00028090656
0.063884333 -0.17669041 0.4385184 -0.14543399 0.16542947 -0.97543937 0.029647691
0.076008618 -0.17554031 0.43868467 -0.47419024 0.17567421 -0.86271793 0.089252733
0.085067444 -0.17500533 0.43507832 -0.81608194 0.12974633 -0.5631839 0.07748881
-0.085044123 -0.16501948 0.43521214 0.80346525 0.045105156 -0.59364051 0.082883306
-0.072130583 -0.16791488 0.43978724 0.29881266 0.15584418 -0.94150066 0.067860022
-0.065808848 -0.16680729 0.43994731 0.15948752 0.140057 -0.97721428 0.031511251
-0.055504926 -0.16774079 0.43981236 3.2457096e-06 0.14311543 -0.98970598 0
-0.045333263 -0.16844185 0.43971103 -2.3690765e-05 0.14310001 -0.98970824 0.00018406677
-0.030848939 -0.16928354 0.43958932 -3.8138091e-06 0.14314717 -0.98970139 0
-0.025398916 -0.16780901 0.43980256 2.238341e-06 0.14319277 -0.98969477 1.1680561e-05
-0.018019788 -0.16951962 0.43955517 -7.3081101e-06 0.143093 -0.9897092 0
-0.0056254501 -0.16808972 0.43976194 -1.6907919e-06 0.1431182 -0.98970562 9.4088928e-06
0.00084955618 -0.16934392 0.43958056 -1.5858798e-06 0.14305454 -0.9897148 9.2820439e-05
0.013121303 -0.16791354 0.43978739 4.1355715e-06 0.14320558 -0.98969299 0
0.03402986 -0.16841947 0.43971425 1.5047195e-05 0.14308527 -0.98971033 0.00011254819
0.046375226 -0.16825514 0.43973804 2.5565634e-05 0.14302519 -0.98971903 6.761666e-05
0.051449459 -0.16776709 0.43980861 1.2421264e-05 0.14316517 -0.98969877 0.00010129369
0.067093387 -0.16726014 0.43988186 -0.19748111 0.15936716 -0.9672659 0.037135232
0.073509008 -0.16838177 0.43971971 -0.37464982 0.1207421 -0.91927081 0.080762938
0.08449062 -0.16634785 0.43624112 -0.75595886 0.096366093 -0.64748722 0.075711414
-0.085182823 -0.15647677 0.43441513 0.82697695 0.050237987 -0.55998677 0.077132121
0.085182823 -0.15485477 0.4335936 -0.91767216 0.068990543 -0.39130321 0.079479285
-0.085182816 -0.14346012 0.43581095 0.83266377 0.063000888 -0.55018353 0.090082899
0.085182823 -0.14524235 0.436317 -0.87014389 0.067608595 -0.48813802 0.07674922
-0.085182831 -0.13414145 0.43541095 0.92717332 0.030260582 -0.37340862 0.071530305
0.085182838 -0.13446012 0.43602228 -0.89923555 -0.0086140512 -0.43738002 0.066346265
-0.085182831 -0.12641394 0.43568978 0.90275341 0.064894743 -0.42523509 0.066348091
0.085182831 -0.12340242 0.43503004 -0.92888081 0.078632884 -0.36193559 0.058019862
-0.085182831 -0.11520604 0.43432674 0.93255758 0.040789757 -0.35870975 0.056429785
0.085182823 -0.11515518 0.43364567 -0.9474057 0.032567911 -0.31837344 0.061227541
-0.085182838 -0.10483963 0.43425032 0.93870056 0.016119158 -0.34435666 0.055145137
0.085182823 -0.10551503 0.43358335 -0.96480048 0.033435389 -0.26084867 0.046327755
-0.085182838 -0.093677379 0.43478596 0.91749561 0.10598832 -0.38336441 0.068988077
0.085182823 -0.095591366 0.43533325 -0.93453449 0.085589044 -0.34542704 0.063504077
-0.085182823 -0.084840357 0.43505469 0.94900972 0.10073017 -0.29872063 0.066108301
0.085182831 -0.083350249 0.43445233 -0.96895188 0.073666312 -0.23602006 0.057177905
-0.085182831 -0.076438591 0.43496171 0.96141773 0.005015674 -0.275047 0.050328501
0.085182823 -0.074688196 0.43461084 -0.97459602 0.077627406 -0.21008711 0.051948592
-0.085182831 -0.06628748 0.43515986 0.977997 0.053233627 -0.20171256 0.040318191
0.085182831 -0.066517659 0.43495116 -0.9814899 0.054104365 -0.18371274 0.042651486
-0.085182823 -0.05418653 0.43336409 0.99827474 0.031709153 -0.049417645 0.0083373049
0.085182823 -0.054592885 0.43419495 -0.99776089 0.030673366 -0.059434123 0.0078612538
-0.085182823 -0.043854803 0.43527883 0.99997598 0.0049563078 -0.0048417919 0.0001634978
0.085182831 -0.043160748 0.43581778 -0.99999475 0.0026495422 -0.0018570416 3.960753e-05
-0.085182831 -0.034605671 0.43482894 1 1.9303718e-06 1.6952801e-05 2.0946934e-06
0.085182831 -0.035021797 0.43462047 -1 1.5931784e-06 -1.7077729e-05 5.73223e-06
-0.085182831 -0.023856647 0.43489891 1 -1.0401644e-06 -3.0212764e-08 9.0831991e-06
-0.015902763 -0.022350099 0.43381208 0.48605227 0.8738851 0.0088312775 0.018209491
-0.0042079752 -0.027449748 0.43464056 0.16737793 0.98588622 -0.0036005832 0.025538906
0.0040459232 -0.028199874 0.43473482 -0.080705345 0.99602807 -0.037613977 0.024766846
0.013294231 -0.026410652 0.43525076 -0.31015024 0.95045733 -0.020920603 0.022679243
0.022120938 -0.021677397 0.43813348 -0.53450459 0.84515029 -0.0050806087 0.016912531
0.085182823 -0.027363848 0.43468407 -1 4.1827635e-09 1.9912583e-05 4.3803652e-06
-0.085182831 -0.017320711 0.43483943 1 -4.1439666e-06 4.1412699e-05 7.684821e-06
-0.023776621 -0.01527178 0.43352637 0.70060498 0.7135365 0.0042724977 0.0072949696
0.027538985 -0.016619902 0.43435431 -0.66842639 0.74376565 -0.0043331054 0.01155359
0.03129689 -0.012744215 0.43222076 -0.72312886 0.69069594 -0.0048650936 0.0070729833
0.085182831 -0.015111413 0.43627676 -1 -2.9213996e-07 1.7929277e-05 3.1812228e-06
-0.085182823 -0.0067460947 0.43659028 1 -2.6479233e-07 2.278902e-08 6.3001135e-06
-0.032183852 -0.0047177123 0.43612427 0.82979017 0.55797714 -0.010474683 0.0037583886
-0.029188834 -0.0088783149 0.43282717 0.81837791 0.57467544 -0.0024036441 0.0040331911
0.035962209 -0.0064873388 0.43605545 -0.82056344 0.57155275 -0.0017652605 0.0040060258
0.040041104 -0.00018320628 0.43511337 -0.87692076 0.48059088 -0.0065169302 0.005293061
0.085182831 -0.0049961871 0.43409732 -1 2.0725987e-07 1.7101396e-05 4.2102897e-06
-0.085182831 0.0038273346 0.43421543 1 -5.3146078e-07 -1.5435191e-05 2.0567234e-06
-0.038185805 0.0062701041 0.43623558 0.91099751 0.41236356 0.0063115568 0.0049440619
0.042909235 0.005457548 0.43484727 -0.89969718 0.4364686 -0.0063304137 0.0051072836
0.085182823 0.0042774957 0.43741941 -1 1.9749466e-06 -1.6099042e-05 4.5452034e-06
-0.085182823 0.016052879 0.43378556 1 5.4516829e-07 -5.7344273e-08 4.3937425e-06
-0.040938534 0.013226443 0.43401629 0.94049352 0.33980706 -0.001778146 0.0042397599
0.046502553 0.014899322 0.43485391 -0.95663327 0.29124865 0.0051998878 0.0042027258
0.085182823 0.014356127 0.43547818 -1 -4.9110787e-07 -3.1862314e-08 3.9767647e-06
-0.085182823 0.024651287 0.43895888 1 2.216244e-06 1.51637e-05 5.5857481e-06
-0.043986667 0.02604487 0.43366528 0.99097073 0.13367584 -0.010383901 0.0045235744
0.048995037 0.025413204 0.43610522 -0.98503226 0.17234978 0.0026406085 0.0035261305
0.085182816 0.024332669 0.43317544 -1 1.3223656e-06 3.1614793e-05 6.2931035e-06
-0.085182831 0.033915456 0.43406412 1 -1.2440331e-06 3.3817967e-05 4.3892483e-06
-0.044766098 0.033581231 0.43581378 0.99952054 0.030333074 -0.0062080394 0.0061803772
0.049838115 0.032996915 0.43386498 -0.99684185 0.078629695 -0.011121771 0.0047726119
0.050128322 0.037048057 0.4322392 -0.99958462 0.028072327 -0.0065226741 0.0029637716
0.085182831 0.035941787 0.43332258 -1 -0 -0 3.1152854e-06
-0.085182838 0.044713005 0.43492806 1 0 0 3.1007507e-06
-0.044510804 0.044818375 0.43592125 0.99380499 -0.11086101 0.0078415694 0.0029791049
0.04938269 0.047367703 0.43430996 -0.9890548 -0.14753981 -0.0015821635 0.0042618481
0.085182816 0.043760404 0.4349612 -1 2.3474993e-06 -1.2743205e-08 9.0750809e-06
-0.085182823 0.056610636 0.43454269 1 3.9399347e-06 1.8872895e-05 5.5589703e-06
-0.042820357 0.05514998 0.43483812 0.97374833 -0.22756717 -0.005232051 0.0060854438
0.047809608 0.055657756 0.43632737 -0.97195053 -0.23517494 0.0022188085 0.0035106535
0.085182831 0.056109972 0.43372753 -1 -3.9941674e-06 -5.0968381e-05 3.0796687e-06
-0.085182823 0.065276563 0.43552727 1 -5.9942045e-07 4.3722714e-05 3.1722191e-06
-0.040898066 0.062001228 0.43361354 0.95114291 -0.30870104 -0.0055581434 0.0064465669
-0.038282759 0.069000907 0.43558744 0.89897496 -0.43798089 0.0040927585 0.0054807174
0.044153288 0.066950671 0.43250418 -0.92078388 -0.39007288 -0.00056993053 0.0036636323
0.085182823 0.065711439 0.43494931 -1 -6.1150486e-06 -3.0265131e-08 2.080792e-06
-0.085182831 0.072787523 0.43508634 1 1.3360163e-06 4.1631658e-05 4.4033159e-06
-0.034888752 0.075346 0.43440071 0.85857576 -0.51267445 -0.0035416023 0.0042961189
0.038744591 0.077672422 0.4326992 -0.84853804 -0.52911144 -0.0049275015 0.0057646632
0.041773528 0.072135881 0.43577901 -0.90134925 -0.43308643 -0.0023879844 0.0051747239
0.085182831 0.0746831 0.43773949 -1 -2.0601182e-07 1.6175054e-05 6.9300536e-06
-0.085182831 0.085982978 0.43264049 1 4.1062194e-06 5.266869e-07 6.3742646e-06
-0.030931205 0.081675097 0.43662092 0.8243894 -0.56602269 -0.00070448528 0.0057637445
-0.026159562 0.087777317 0.435541 0.74350196 -0.66873378 2.4606825e-05 0.0084630605
0.034408413 0.083854944 0.43436489 -0.75776798 -0.65241981 -0.011670599 0.0054296893
0.085182823 0.084501244 0.43274447 -1 0 0 5.2150826e-06
-0.085182823 0.096058503 0.43492255 1 -5.2367573e-06 -1.9196417e-05 8.9398745e-06
-0.021271355 0.092890106 0.43278351 0.64903647 -0.76075709 -0.00051428884 0.014204722
-0.015873041 0.097566299 0.43570355 0.52133912 -0.85331154 -0.0080566509 0.018925482
0.018518375 0.099216759 0.43607059 -0.49676085 -0.86775231 0.015319591 0.017599994
0.022933481 0.09605749 0.43518037 -0.56165636 -0.82727849 -0.012347724 0.016076386
0.085182823 0.091895364 0.43495655 -1 -5.107614e-06 -3.1049229e-05 3.0833021e-06
-0.085182816 0.10414038 0.43384066 1 -0 -0 6.2724121e-06
-0.0048527406 0.10253075 0.43487307 0.22009963 -0.97546333 -0.0052354066 0.026891379
0.0062955553 0.10316481 0.43569642 -0.085435577 -0.99627352 0.011824988 0.027190754
0.013375524 0.10157146 0.43420011 -0.3373934 -0.94131792 -0.0092889769 0.024640534
0.085182823 0.10636067 0.4350647 -1 4.4893281e-06 1.851725e-05 5.2501009e-06
-0.085182831 0.11386657 0.4346948 1 -3.7840721e-07 1.7856199e-05 1.9220533e-06
0.085182816 0.11326256 0.43405047 -1 6.4960436e-06 3.9098992e-05 7.0795254e-06
-0.085182831 0.12441602 0.43560362 1 6.5464615e-06 -1.6064736e-05 2.0181967e-06
0.085182823 0.12644093 0.4373664 -1 -4.6006298e-06 -3.2204625e-05 1.070464e-06
-0.085182823 0.13371067 0.43621483 1 3.2630846e-06 -1.8810018e-05 6.7504661e-06
0.085182831 0.13241106 0.4359231 -1 -1.1490681e-06 1.6870716e-05 3.3395697e-06
-0.085182831 0.14239018 0.4347344 1 -6.2747063e-07 1.9046198e-05 6.3576595e-06
0.085182831 0.14439435 0.43406302 -1 2.8940727e-05 3.7590406e-05 7.0034625e-06
-0.085182831 0.15368855 0.43506509 1 -1.813458e-05 -2.9637791e-05 2.8520581e-06
0.085182831 0.15442118 0.43473405 -1 -2.0487271e-06 1.6691538e-05 3.1594723e-06
-0.085182823 0.16604789 0.43644977 1 1.6836788e-06 1.7377151e-05 9.4381321e-06
0.085182831 0.16471943 0.43492293 -1 2.9652604e-06 1.5836871e-05 7.3623355e-06
-0.085182831 0.17567672 0.43525502 1 -1.3117286e-05 2.0706496e-08 3.0673846e-06
0.085182823 0.17444886 0.43627414 -1 2.0069961e-05 3.0491314e-05 7.3414781e-06
-0.085182838 0.1863744 0.43575308 1 -2.5560594e-05 -9.0830571e-07 3.1475938e-06
0.085182831 0.18539406 0.4361921 -1 8.2219149e-06 -5.7468853e-08 0
-0.085182831 0.19624618 0.43427545 1 0 0 2.0593586e-06
0.085182831 0.19445668 0.43583137 -1 -6.7257024e-06 1.7482904e-05 2.0198806e-06
-0.085182823 0.20495892 0.4355529 0.9956429 -0.093241856 -0.0010175183 0.015620387
0.085182831 0.20502876 0.43438962 -0.993379 -0.11428479 -0.011711451 0.014831333
-0.085182831 0.21580996 0.43536147 0.96089011 -0.27641395 -0.016900958 0.063426308
0.085182823 0.21625422 0.43388817 -0.93639451 -0.35076645 -0.0113212 0.067853265
-0.085182816 0.22425856 0.43447554 0.87135571 -0.48881212 -0.042450506 0.083377823
0.085182823 0.2241815 0.43577686 -0.90025252 -0.43375939 -0.037393622 0.084682234
-0.081955284 0.23012726 0.43260431 0.59699261 -0.80030829 -0.055736482 0.092097767
-0.074867576 0.23012727 0.43511721 0.44435185 -0.89585102 0.0015287368 0.089847594
-0.066934422 0.23012725 0.43528047 0.19009605 -0.98143727 -0.025383314 0.036206745
-0.054104835 0.23012725 0.4342297 1.6708553e-05 -1 -0.00011640705 0
-0.045740139 0.23012726 0.43553188 8.8937413e-06 -1 -0.00011915905 0
-0.034660846 0.23012726 0.4345161 1.1517406e-05 -1 -6.8584843e-05 0
-0.023806538 0.23012725 0.43476874 -2.7525234e-06 -1 -3.0035959e-05 0
-0.014567041 0.23012726 0.43350601 -1.1287317e-06 -1 -9.5139447e-05 0
-0.0052685323 0.23012723 0.43618947 5.4759025e-06 -1 -0.0001217762 0
0.0036358726 0.23012726 0.43400893 4.15572e-07 -1 -5.9879014e-05 0
0.017115643 0.23012726 0.43340003 -4.0714681e-06 -1 -1.8285296e-07 0
0.024738524 0.23012725 0.43432021 7.1044411e-07 -1 -9.7184733e-05 0
0.036589291 0.23012725 0.43504998 -4.9110307e-09 -1 -0.00012677423 0
0.044393782 0.23012725 0.4353649 -7.459299e-06 -1 -0.00014212963 0
0.055238292 0.23012725 0.43474948 -1.1645648e-05 -1 -0.00010604193 0
0.063972123 0.23012723 0.43494123 -0.15791544 -0.98740071 0.010126244 0.029477295
0.07358072 0.23012725 0.43581042 -0.44419748 -0.89496088 0.04163589 0.093308985
0.081326738 0.23012725 0.43525785 -0.5695712 -0.82194191 0.00040234474 0.09635777
-0.084510483 -0.1646414 0.44026053 0.67577136 0.13006929 -0.72554469 0.10002349
-0.075777113 -0.16306813 0.44048801 0.51300901 0.141341 -0.84666669 0.089376755
-0.064030595 -0.1626316 0.44055113 0.14861138 0.1619388 -0.97554624 0.029069543
-0.054367155 -0.16353112 0.44042104 0.00029830594 0.14301479 -0.98972052 0
-0.044470638 -0.16311777 0.4404808 -1.3261504e-05 0.14311942 -0.98970538 9.3786446e-05
-0.034839325 -0.16401812 0.44035062 -2.0418202e-06 0.14322373 -0.9896903 4.959216e-07
-0.024820315 -0.16364187 0.44040501 -4.744995e-07 0.1431099 -0.98970675 0
-0.013770446 -0.16303992 0.44049206 7.4236564e-06 0.14314397 -0.98970193 0
-0.0045901015 -0.16338821 0.44044173 -5.7707098e-06 0.14314167 -0.98970222 5.3998891e-05
0.0046980446 -0.16414627 0.44033211 2.5697993e-06 0.14320315 -0.98969334 0
0.015051553 -0.16413343 0.44033399 -8.9223922e-06 0.14304011 -0.98971689 0
0.024814919 -0.16392221 0.44036448 -7.9140182e-06 0.14316636 -0.98969859 0
0.03266228 -0.162273 0.44060296 8.592714e-06 0.14307478 -0.98971188 0
0.046534289 -0.16429041 0.44031128 1.1676073e-05 0.14304729 -0.98971587 0.00015795961
0.053965162 -0.16314 0.44047761 7.0667943e-07 0.14316343 -0.98969907 0
0.066122882 -0.16135371 0.44073591 -0.17007622 0.12605701 -0.97733504 0.035067506
0.073833577 -0.16269684 0.44054168 -0.40023464 0.18833508 -0.89685124 0.080519371
0.084225148 -0.1625419 0.44056413 -0.7224468 0.1674837 -0.67083514 0.070087589
-0.083337471 -0.15606365 0.44141692 0.60162908 0.10589667 -0.79172492 0.097451404
-0.074907675 -0.15364486 0.44185054 0.47758138 0.16366103 -0.86320978 0.082979739
-0.065157607 -0.15574586 0.44154668 0.17555957 0.12855652 -0.97603899 0.038945083
-0.053435888 -0.15388016 0.44181642 0.0003132557 0.14310654 -0.98970723 6.9392408e-05
-0.043952189 -0.15473513 0.44169283 2.5039264e-05 0.14306317 -0.98971355 0
-0.03469551 -0.15416013 0.44177595 2.8872871e-06 0.14314218 -0.98970211 6.5644614e-05
-0.026182218 -0.15209782 0.44207418 -1.1429809e-05 0.14316647 -0.98969865 3.8159651e-05
-0.015327885 -0.15383597 0.44182292 1.105203e-05 0.14314781 -0.98970133 2.3095852e-05
-0.0039849398 -0.1539164 0.4418112 1.0919088e-06 0.14313842 -0.98970264 0
0.0068902606 -0.15568621 0.44155529 1.8910659e-06 0.14309078 -0.98970956 0
0.013383843 -0.15701921 0.44136262 -4.0157238e-06 0.14308953 -0.98970973 0
0.024061374 -0.1550169 0.44165212 -1.5876743e-05 0.14320141 -0.98969364 0
0.037217837 -0.15413754 0.44177926 1.5827927e-05 0.14307939 -0.98971123 4.8394504e-05
0.043358404 -0.1538035 0.44182757 1.8845305e-05 0.14301172 -0.98972106 0
0.052958738 -0.15498666 0.44165647 -8.8954075e-06 0.14310195 -0.98970795 0
0.064815454 -0.15665561 0.44141513 -0.16371188 0.12989172 -0.97791946 0.035537101
0.076108895 -0.1548741 0.44167277 -0.3968322 0.13936859 -0.90724891 0.070304915
0.083894446 -0.15618141 0.4414379 -0.77771837 0.071319401 -0.62455398 0.07823053
-0.08391054 -0.14538036 0.44287571 0.60817164 0.061159052 -0.79144597 0.083019689
-0.072902374 -0.14489727 0.44311526 0.33191052 0.12274773 -0.93529058 0.056059863
-0.064329222 -0.14504701 0.44309363 0.19588034 0.10676611 -0.97479832 0.040051334
-0.056566704 -0.14556892 0.4430182 0.027435986 0.13918944 -0.98988557 0.0033639604
-0.045250304 -0.14430347 0.44320118 3.7640687e-06 0.14312483 -0.98970461 0
-0.03558727 -0.14433704 0.4431963 -4.7324838e-06 0.14310302 -0.98970777 3.0079811e-05
-0.024281556 -0.14548247 0.44303063 7.0947085e-06 0.14314526 -0.98970169 0
-0.013988382 -0.14431171 0.44319993 3.5078292e-06 0.14314336 -0.98970199 0
-0.0034669749 -0.14423837 0.44321054 -9.211663e-07 0.14309619 -0.98970878 0
0.0054813148 -0.1441263 0.44322675 7.7600777e-07 0.14312354 -0.98970485 0
0.014113207 -0.14607915 0.44294438 -1.135719e-05 0.14315744 -0.98969996 0
0.023777153 -0.14659491 0.44286984 -6.1964411e-06 0.14312916 -0.98970401 0
0.034755874 -0.14638872 0.44289961 -9.0456742e-06 0.14313585 -0.98970306 0
0.04543389 -0.14448723 0.44317454 9.5019986e-06 0.14309399 -0.98970908 0
0.05291687 -0.14904973 0.4425149 -2.3001398e-06 0.14305365 -0.98971498 0
0.063328415 -0.14616536 0.44293195 -0.13850987 0.15324786 -0.97843248 0.029177612
0.072795406 -0.14495361 0.44310719 -0.3185648 0.1147484 -0.94092995 0.071976192
0.083536983 -0.14321369 0.44312304 -0.81146926 0.11410709 -0.57314664 0.073239446
-0.082914412 -0.13398613 0.44395742 0.65631539 0.098490737 -0.74803054 0.10187316
-0.07452172 -0.13522798 0.44451338 0.32355076 0.094126731 -0.94151741 0.054988571
-0.065983787 -0.13581762 0.44442815 0.25300983 0.1143951 -0.96067667 0.050069232
-0.055159606 -0.13357733 0.44475201 0.0033389369 0.14296679 -0.98972189 9.8367629e-05
-0.04372954 -0.13560775 0.44445845 -2.6095067e-06 0.14308448 -0.98971051 8.2053572e-05
-0.035463586 -0.13430502 0.44464681 -1.8676559e-05 0.14303097 -0.9897182 0.0001910649
-0.023932396 -0.13540903 0.44448718 -3.6885829e-06 0.14314497 -0.98970169 0.00010296205
-0.014418367 -0.13466066 0.4445954 3.5890416e-06 0.14309676 -0.98970866 0
-0.0068317559 -0.13459404 0.44460502 4.7530707e-06 0.14309993 -0.98970824 8.518503e-07
0.0039868383 -0.13602634 0.44439793 -2.3456948e-06 0.1431246 -0.98970467 0
0.014428454 -0.13560045 0.4444595 -4.6392374e-06 0.14314239 -0.98970211 3.040264e-05
0.024521239 -0.13589522 0.44441688 1.2329096e-05 0.14309774 -0.98970854 3.5330013e-05
0.034893245 -0.13378401 0.44472218 -1.2229574e-05 0.14307052 -0.98971254 3.08448e-05
0.045688055 -0.13560915 0.44445822 -1.3402586e-05 0.14312738 -0.98970419 0
0.054471221 -0.13475965 0.44458103 -0.0027858643 0.14284003 -0.98974186 0.00011607033
0.065573104 -0.13458258 0.44460663 -0.21050476 0.11486579 -0.97082108 0.04126595
0.074739277 -0.13621613 0.44437045 -0.35469455 0.10126698 -0.92948204 0.062973373
0.083351739 -0.13377564 0.44405061 -0.64477843 0.09661682 -0.75823879 0.088083021
-0.084531233 -0.12676451 0.44393235 0.70638961 0.040828791 -0.70664471 0.082202196
-0.076362878 -0.12621976 0.4458158 0.48331517 0.14165609 -0.86390972 0.068106033
-0.063833237 -0.12413584 0.44611719 0.15530717 0.15537074 -0.97557145 0.027600992
-0.055037268 -0.12509364 0.4459787 0.0091818096 0.14446872 -0.98946673 0.00011667577
-0.045343477 -0.12841491 0.44549841 -3.3246467e-06 0.14307851 -0.98971128 0
-0.034599178 -0.12362036 0.44619167 -7.4511699e-06 0.14307794 -0.98971146 6.0792281e-05
-0.0255819 -0.12673374 0.4457415 5.9176523e-07 0.14310843 -0.98970699 2.6169475e-05
-0.016131572 -0.12490367 0.44600609 4.922842e-06 0.14302698 -0.98971885 2.2657059e-05
-0.006182977 -0.12381704 0.44616324 -4.7446742e-06 0.14313087 -0.98970377 0
0.0049717869 -0.12579264 0.44587764 -1.7308622e-06 0.14314283 -0.98970205 0
0.013395621 -0.12414724 0.44611549 -9.7937902e-07 0.14309391 -0.98970908 5.2081368e-06
0.024995791 -0.12506366 0.44598302 3.9670249e-06 0.1430845 -0.98971051 0
0.034661211 -0.12571628 0.44588861 6.1264254e-06 0.14315309 -0.98970056 0
0.045340482 -0.12276357 0.44631556 2.1450605e-05 0.14314573 -0.98970163 7.1547482e-05
0.055669416 -0.12692647 0.44571367 -0.012643353 0.14387505 -0.98951507 0.00020015387
0.064577989 -0.12391438 0.4461492 -0.10826557 0.1539394 -0.982131 0.016511407
0.074527025 -0.1256116 0.44590372 -0.40964767 0.16118874 -0.89789027 0.069650434
0.084241003 -0.12537283 0.44368911 -0.70295542 0.14392273 -0.69651979 0.089685626
-0.083334357 -0.11424181 0.44593823 0.66908509 0.10346629 -0.7359482 0.071523406
-0.073682122 -0.11528205 0.44739726 0.39445546 0.13182756 -0.90940994 0.065559223
-0.066132486 -0.11264497 0.44777858 0.17467308 0.12786153 -0.97628921 0.028640153
-0.054293346 -0.11460122 0.4474957 0.0063271658 0.14354424 -0.98962367 0.00019070043
-0.044425599 -0.11408559 0.44757029 -1.591957e-05 0.14311801 -0.98970556 0.00010726877
-0.032136258 -0.11621087 0.44726297 5.1610164e-06 0.14302397 -0.98971927 8.7780289e-05
-0.023987571 -0.1162882 0.4472518 -2.7548035e-06 0.14306749 -0.98971289 8.7434048e-05
-0.015750209 -0.11508483 0.44742575 3.0994943e-07 0.1431087 -0.98970693 0.00013518988
-0.003347883 -0.11515728 0.44741532 3.2082352e-07 0.14312813 -0.98970419 0
0.0046648802 -0.11574274 0.44733068 5.593763e-07 0.14306918 -0.98971266 8.3120649e-05
0.011800989 -0.11686587 0.44716826 5.7643083e-06 0.14310275 -0.98970783 5.5211625e-05
0.024257638 -0.11530636 0.44739377 3.5900864e-06 0.14317307 -0.98969769 0
0.034827664 -0.11663311 0.44720194 -2.0479126e-06 0.14315249 -0.98970062 0
0.045090251 -0.11614018 0.44727325 -8.5063521e-06 0.14312617 -0.98970443 4.1240841e-05
0.057050269 -0.11487535 0.44745609 -0.016424935 0.14791651 -0.98886347 0.00036442131
0.067395844 -0.11535493 0.44738674 -0.2235771 0.16766544 -0.96015704 0.045789335
0.074128889 -0.11336607 0.4476743 -0.38084868 0.19976859 -0.90279943 0.070716351
0.083771236 -0.11473021 0.44561684 -0.70185006 0.09221568 -0.70633048 0.076659605
-0.084223583 -0.1051828 0.44497246 0.86559337 0.053382423 -0.49789402 0.075570695
-0.074312083 -0.10429977 0.44898519 0.42012015 0.20186429 -0.88473147 0.078937396
-0.06663835 -0.1043618 0.44897619 0.16921082 0.1378223 -0.97589588 0.03216368
-0.05455105 -0.10327921 0.44913277 -1.1375014e-05 0.14310579 -0.98970741 5.0575971e-05
-0.044974715 -0.1055665 0.44880205 -1.2820704e-05 0.14304334 -0.98971635 9.4054805e-05
-0.035524379 -0.10692894 0.44860506 -6.5264471e-06 0.14315093 -0.98970085 0
-0.024927298 -0.10514934 0.4488624 -3.7050304e-06 0.14306374 -0.98971349 0
-0.015284632 -0.10541316 0.4488242 8.8872503e-06 0.1431729 -0.98969769 0
-0.0067836456 -0.10533732 0.44883519 -3.8107777e-07 0.14311366 -0.98970628 0
0.0033463661 -0.10526799 0.44884518 -4.9248592e-07 0.143126 -0.98970449 0
0.013794151 -0.10456018 0.44894752 -4.4006779e-06 0.14311227 -0.9897064 6.8333495e-05
0.024665968 -0.10372408 0.44906846 -9.503097e-07 0.14311193 -0.98970652 6.3088926e-05
0.034882978 -0.10815661 0.44842753 2.1565396e-05 0.14306824 -0.98971283 0
0.043904208 -0.10413805 0.44900861 4.3530003e-06 0.14311728 -0.98970574 0
0.053658456 -0.10712846 0.44857621 -0.003460069 0.14267763 -0.9897632 7.6928896e-05
0.066696443 -0.10347767 0.4491041 -0.14633988 0.16906552 -0.97468019 0.027684435
0.076647103 -0.10567657 0.44878611 -0.50957072 0.096182927 -0.85503596 0.092711739
0.083320178 -0.10467365 0.44791201 -0.59370786 0.11457275 -0.79648226 0.092686333
-0.084949657 -0.095991321 0.44478101 0.86574173 0.13887274 -0.48083848 0.078616627
-0.075276658 -0.098261595 0.44985828 0.4818415 0.15629742 -0.8622064 0.075635903
-0.064137422 -0.09893503 0.44976088 0.15454902 0.1563182 -0.97554046 0.03227599
-0.054498747 -0.098103404 0.44988111 -1.789107e-05 0.14312422 -0.98970467 0
-0.042926766 -0.099752098 0.44964275 1.2978005e-06 0.14308445 -0.98971051 0
-0.031679183 -0.099052005 0.44974396 1.7923388e-05 0.1430953 -0.9897089 0
-0.026145861 -0.098350056 0.44984543 -1.875247e-06 0.14311826 -0.98970562 3.5636956e-05
-0.017609555 -0.098002307 0.44989577 -2.5319603e-06 0.14307864 -0.98971128 0.00012917361
-0.0021619394 -0.098344497 0.44984627 -1.4447213e-06 0.14307208 -0.9897123 6.5836473e-05
0.0052164919 -0.099152595 0.44972944 1.1184021e-06 0.14309651 -0.98970872 2.3532693e-05
0.017744705 -0.097343765 0.44999093 3.4329303e-06 0.1431002 -0.98970819 2.6958105e-05
0.028459422 -0.099181615 0.44972524 -3.4554953e-06 0.14307232 -0.98971224 0
0.035571739 -0.098966271 0.44975638 -2.2530805e-05 0.14309759 -0.9897086 0
0.045927539 -0.098493963 0.44982466 3.1281721e-05 0.14311452 -0.9897061 2.7618005e-05
0.053363688 -0.098488495 0.44982544 -0.0036337897 0.14268495 -0.98976153 0.00014104687
0.065500215 -0.099703237 0.44964981 -0.17792916 0.1477519 -0.97288775 0.038279146
0.079213038 -0.098729625 0.4497906 -0.51358622 0.11570781 -0.85020047 0.082574323
0.082622305 -0.09701623 0.4489091 -0.58810794 0.07224334 -0.8055495 0.087256424
-0.085182838 -0.084720716 0.4442108 0.88781112 0.09662167 -0.44995072 0.072907515
0.085182838 -0.085445449 0.44432935 -0.82455575 0.10139756 -0.55662048 0.099186182
-0.085182831 -0.073991194 0.44293159 0.94843191 0.15199259 -0.27816373 0.062435236
0.085182816 -0.074312404 0.44744796 -0.92664272 0.08863911 -0.36534417 0.068503067
-0.085182823 -0.06410861 0.44417262 0.95938182 0.083958089 -0.26932812 0.060903993
0.085182823 -0.06560386 0.44548923 -0.95615637 0.090926535 -0.27838361 0.067305081
-0.085182831 -0.056020293 0.44575793 0.96041638 0.16087526 -0.2274196 0.067459919
0.085182816 -0.054682817 0.4442237 -0.96836919 0.15526558 -0.19532982 0.053035166
-0.085182831 -0.045176573 0.44235191 0.99730736 0.054614849 -0.048941161 0.0097380234
0.085182831 -0.046680473 0.44458857 -0.98281026 0.11866653 -0.14142881 0.04505457
-0.085182823 -0.034472998 0.44554439 0.99999899 0.0010150435 -0.0010187479 9.9051394e-06
0.085182823 -0.034578048 0.44537401 -0.99998677 0.0038105715 -0.0034720537 6.3848827e-05
-0.085182823 -0.024097165 0.44723853 1 1.4667592e-06 1.5862892e-05 4.4556095e-06
-0.017261678 -0.021400725 0.44732285 0.5663951 0.82384485 0.021822948 0.012429739
-0.0062886802 -0.026904723 0.44446355 0.25640455 0.96642232 -0.016868396 0.027430706
0.0061784894 -0.028046176 0.44734466 -0.10506191 0.99443424 -0.0078992527 0.034404363
0.014375319 -0.025957976 0.44566259 -0.32381192 0.94608289 0.0085440837 0.019227527
0.021100121 -0.022446938 0.44374391 -0.51622707 0.85642046 0.0073208958 0.015720021
0.085182831 -0.026476743 0.44445059 -1 -3.6053273e-06 1.5259322e-05 2.0074096e-06
-0.085182816 -0.014663902 0.44411653 1 -9.8841917e-07 1.6189508e-05 3.3534645e-06
-0.024558727 -0.014408478 0.4453958 0.73602748 0.67683583 0.012524637 0.0078431703
-0.019437276 -0.019600239 0.44788706 0.59946454 0.80025405 0.015352104 0.013240248
0.027103135 -0.017054658 0.4438231 -0.66597402 0.7459709 -0.0024628676 0.012557384
0.031543165 -0.012414548 0.44457513 -0.73097056 0.68236977 -0.007310851 0.0086571509
0.085182823 -0.01594591 0.44611195 -1 -1.0294269e-06 2.7433993e-08 3.0306046e-06
-0.085182823 -0.0066504413 0.445178 1 -1.4938597e-06 -1.8107918e-05 2.0797386e-06
-0.032407951 -0.0044324719 0.44433868 0.82853466 0.55993742 0.00063368684 0.0042136838
-0.029557962 -0.0083862748 0.44583911 0.80335027 0.59550107 0.0026071069 0.0073733754
0.036603574 -0.0056408071 0.44461289 -0.82997561 0.55775934 0.0067049609 0.0039229607
0.085182823 -0.0038141471 0.44452333 -1 -1.0581484e-07 -1.5852216e-05 2.1123396e-06
-0.085182831 0.0039699823 0.44309863 1 3.2633406e-07 -2.8878683e-08 9.6284402e-06
-0.037312079 0.0042642993 0.44579521 0.8875038 0.46078965 -0.0031485565 0.0054321722
0.043601245 0.0070417062 0.44524682 -0.91444927 0.40467092 0.0048978208 0.0057962826
0.085182831 0.0050699343 0.44375739 -1 6.7728018e-07 1.4958647e-05 4.3407163e-06
-0.085182823 0.015633944 0.44755939 1 7.9318323e-07 1.6827664e-05 2.1411317e-06
-0.041662291 0.015661791 0.44395125 0.95507103 0.2962963 0.0069148792 0.0057002865
-0.03983438 0.010271253 0.44327804 0.93272442 0.36052603 -0.0067888396 0.0054261163
0.046691801 0.015309556 0.44553098 -0.95604026 0.29323524 -0.00034992443 0.0039286534
0.085182831 0.015407354 0.44573557 -1 1.9023465e-06 3.4450244e-05 9.7114253e-06
-0.085182823 0.026860941 0.44729447 1 4.7394437e-06 4.6873367e-05 5.2663258e-06
-0.043963619 0.025727622 0.44731039 0.98965663 0.14345591 0.00051392254 0.0040527289
0.048758343 0.023833059 0.44641376 -0.98202157 0.18850653 0.0099445302 0.0031413268
0.085182831 0.023363879 0.4467411 -1 0 0 5.1088145e-06
-0.085182831 0.034623411 0.44555879 1 -1.6929885e-06 -3.4674533e-05 6.4580863e-06
-0.044909075 0.03615614 0.445887 0.99949956 0.02939513 0.01168412 0.0048266915
0.049853373 0.033209898 0.44409823 -0.99806589 0.06212626 0.0021980954 0.0042646825
0.050074816 0.037786659 0.44364813 -0.99992085 -0.0091823442 -0.0086031957 0.0042781662
0.085182831 0.035457335 0.44603682 -1 -6.6923195e-07 4.6591849e-05 7.2447751e-06
-0.085182816 0.045214698 0.44579947 1 -0 -0 1.9943839e-06
-0.044546142 0.044507768 0.44487801 0.99497026 -0.10012135 -0.0031462677 0.0042908592
0.049498592 0.046487354 0.44534081 -0.98891079 -0.14845499 0.0040661241 0.0044490541
0.085182838 0.044976268 0.44579551 -1 1.2623651e-06 -3.0294555e-05 1.0118258e-06
-0.085182831 0.056136817 0.44462228 1 -1.6251537e-06 2.145866e-05 5.6315898e-06
-0.042693738 0.055703618 0.44432473 0.96366352 -0.2668097 0.012851773 0.0039141974
0.04818799 0.053985398 0.44585335 -0.97189927 -0.23534203 -0.0050877528 0.0034475399
0.085182823 0.056526586 0.44897372 -1 4.8729366e-06 1.4969478e-07 4.4737526e-06
-0.085182831 0.066728257 0.4464038 1 0 0 5.7171965e-06
-0.041317526 0.060878556 0.4454248 0.94836962 -0.31709397 0.0068179779 0.0062613697
-0.039283957 0.066321284 0.44497398 0.92528164 -0.37925026 0.0048081228 0.0041928655
0.044644542 0.06565465 0.44570172 -0.93171155 -0.36319745 0.0010333434 0.0048381793
0.085182831 0.06488508 0.4448626 -1 -2.2446141e-06 -4.1566374e-05 5.3439389e-06
-0.085182823 0.074447609 0.4453066 1 6.4147634e-06 3.5901136e-05 4.3198215e-06
-0.034903191 0.075346485 0.44533476 0.85607994 -0.51684058 0.0017508931 0.0040915143
0.038554542 0.077995859 0.44594517 -0.84065104 -0.54155624 0.0047642374 0.0054063625
0.041985888 0.071747713 0.44043356 -0.89637142 -0.44329646 -0.0025550709 0.0045035216
0.085182816 0.075501062 0.44612798 -1 2.3266559e-06 -6.5379182e-09 4.5555694e-06
-0.085182831 0.085662164 0.44465011 1 -1.7551913e-06 -1.4319457e-07 1.9439547e-06
-0.031835377 0.080469854 0.44068766 0.82681829 -0.56246418 0.0023640329 0.0055441246
-0.026999336 0.086835057 0.44600987 0.7531473 -0.65784049 -0.0038887612 0.0092492122
0.029364737 0.089918077 0.44785368 -0.69653404 -0.71739191 0.0137571 0.0090000788
0.03426623 0.083966427 0.445537 -0.76192558 -0.64758664 -0.010042659 0.004991374
0.085182816 0.084524758 0.44435209 -1 -4.6041914e-06 1.4933099e-07 2.1842159e-06
-0.085182831 0.094632238 0.44629684 1 5.6564676e-07 1.553873e-05 3.1951809e-06
-0.022368208 0.091796003 0.44574684 0.69115692 -0.72270405 0.0010137211 0.006816295
-0.017287783 0.096434176 0.44371268 0.5716024 -0.82052577 -0.0028790827 0.015394936
0.018211318 0.099394917 0.44436491 -0.44834018 -0.89376664 0.013125746 0.023970935
0.025279393 0.093926616 0.44553819 -0.6698525 -0.74246031 0.007090243 0.0089125978
0.085182838 0.095325045 0.44352558 -1 4.6039199e-06 -5.9033715e-07 4.3541008e-06
-0.085182831 0.10512785 0.44647047 1 -1.664715e-06 4.3374257e-05 9.6914118e-06
-0.010533233 0.10067478 0.44376034 0.38994414 -0.92070448 -0.015709192 0.025513036
-0.0042677522 0.10260105 0.44455099 0.19036365 -0.9816696 -0.0092920251 0.024875296
0.0055955476 0.10318618 0.44364977 -0.10136816 -0.99466437 -0.019166747 0.02211903
0.013366526 0.10155118 0.44448084 -0.34687915 -0.93787909 -0.007583403 0.025092483
0.085182831 0.10330781 0.44562051 -1 3.9132374e-06 2.2871109e-05 8.0104828e-06
-0.085182823 0.11571977 0.44446215 1 2.5076029e-06 5.3356089e-05 6.4974961e-06
0.085182823 0.1148315 0.44531491 -1 6.926598e-07 -1.5867476e-05 0
-0.085182831 0.12576039 0.44436744 1 3.0205015e-06 1.6071665e-05 2.1092617e-06
0.085182823 0.12510283 0.44430977 -1 1.0224834e-05 1.765317e-05 8.0333757e-06
-0.085182823 0.13544261 0.44510993 1 8.0009959e-06 1.8333565e-05 7.1055265e-06
0.085182831 0.13524298 0.44607008 -1 -5.0636586e-06 5.9798722e-08 1.0569609e-06
-0.085182823 0.14652745 0.44491386 1 4.9706859e-06 3.9002978e-05 4.4184262e-06
0.085182823 0.14478247 0.44351393 -1 -2.5710335e-06 3.1741583e-05 3.2991538e-06
-0.085182823 0.15528302 0.44505724 1 1.2730516e-05 2.3106708e-05 5.5787318e-06
0.085182831 0.15785515 0.44365332 -1 -4.6852932e-07 1.7130471e-05 5.1095767e-06
-0.085182823 0.16566007 0.44394788 1 -1.5562844e-05 -3.0637966e-05 6.5632107e-06
0.085182823 0.16711691 0.44452864 -1 1.2057751e-05 -3.8804468e-05 1.0635761e-06
-0.085182831 0.17365406 0.44663376 1 -8.5324191e-06 -4.5479122e-05 1.9559864e-06
0.085182823 0.17709588 0.4461146 -1 8.5507136e-06 6.9984388e-08 3.1531561e-06
-0.085182831 0.1849539 0.44373074 1 -1.5405883e-05 1.7604887e-05 1.0486301e-06
0.085182831 0.18482755 0.4445864 -1 7.3442761e-06 4.010355e-05 9.9573681e-06
-0.085182823 0.19608206 0.44578871 1 6.4605169e-06 4.2953252e-05 7.9898355e-06
0.085182831 0.19641684 0.44625211 -1 -1.5685018e-05 -1.7699103e-05 8.8983808e-07
-0.085182831 0.20498873 0.44436985 0.99418473 -0.10588395 -0.019625658 0.014447857
0.085182831 0.20463473 0.44494337 -0.99423206 -0.1070893 -0.0058602304 0.014332077
-0.085182823 0.21433286 0.44590187 0.96752882 -0.25275627 0.0014908281 0.052647244
0.085182823 0.21339029 0.4447259 -0.9638781 -0.26632997 0.0027059256 0.053787388
-0.085182831 0.22658381 0.44603419 0.81124496 -0.58391953 0.030324165 0.071967557
0.085182831 0.2249604 0.44417796 -0.81294274 -0.58229029 0.007878378 0.08602757
-0.083021738 0.23012725 0.44264719 0.61276907 -0.78762895 -0.06445685 0.092286214
-0.075167052 0.23012726 0.44424006 0.49090987 -0.8706823 0.03033003 0.092384562
-0.063642122 0.23012726 0.44601044 0.13816036 -0.99023622 0.018543441 0.030237766
-0.053855132 0.23012725 0.44387531 1.4549783e-05 -1 -7.4648182e-05 0
-0.043785822 0.23012726 0.44763398 4.1681947e-06 -1 4.572648e-07 0
-0.035729859 0.23012727 0.44481793 5.9589784e-06 -1 -0.00015541422 0
-0.025643067 0.23012726 0.44432485 7.0425708e-06 -1 -9.5151743e-05 0
-0.014373099 0.23012726 0.44535163 -1.084477e-06 -1 -3.1797052e-05 0
-0.0053715208 0.23012727 0.44618011 -6.2086485e-07 -1 3.4824705e-08 0
0.0045222482 0.23012725 0.44835755 -5.8094879e-06 -1 -9.3344017e-05 0
0.015234113 0.23012725 0.44594401 -3.8465896e-06 -1 -6.5645901e-05 0
0.025625173 0.23012726 0.44823989 -2.7177954e-05 -1 -9.6631935e-05 0
0.035675503 0.23012723 0.44428959 -9.5466548e-06 -1 -3.5701309e-05 0
0.045068644 0.23012726 0.4454 -8.3250179e-06 -1 -0.00021908797 0
0.056233782 0.23012726 0.44354233 -0.019290423 -0.9998138 0.00044403283 0.0017261544
0.064100333 0.23012726 0.4450458 -0.14278747 -0.98969477 0.010769514 0.033167727
0.074763678 0.23012726 0.44603211 -0.45395106 -0.88908833 0.058740523 0.087538511
0.080614671 0.23012726 0.44231153 -0.55750293 -0.83017337 0.0016514753 0.083952881
-0.083326079 -0.093309216 0.45057431 0.59957564 0.18548462 -0.77852714 0.090957046
-0.072462693 -0.094452031 0.45040902 0.35435021 0.1987931 -0.91373801 0.070283286
-0.064648129 -0.094450481 0.45040932 0.17032035 0.14460224 -0.97472107 0.034331325
-0.054633107 -0.096044593 0.4501788 1.6074189e-05 0.14311798 -0.98970568 3.6267487e-05
-0.044170175 -0.093620859 0.45052925 -0.00087258604 0.1517628 -0.98841655 5.5643239e-05
-0.036790669 -0.093679778 0.45052072 -0.0010845261 0.14975946 -0.98872185 0.00037797674
-0.023807254 -0.096188635 0.45015794 -6.2420104e-06 0.1430961 -0.98970878 0
-0.012320247 -0.093257144 0.45058182 0.00094556541 0.15815692 -0.98741353 0.00028129536
-0.0081227422 -0.090387911 0.4509967 0.0011790484 0.16444489 -0.98638558 0.00034499995
0.0056960867 -0.094640501 0.45038176 1.7563007e-06 0.14307351 -0.98971206 0
0.01513721 -0.096037962 0.45017979 1.5712475e-06 0.14312565 -0.98970449 0.00010314627
0.025504313 -0.096937269 0.4500497 2.8172708e-06 0.14308035 -0.98971105 0
0.035489611 -0.093864322 0.45049405 -0.0012869373 0.153304 -0.98817819 0.00016989259
0.045181837 -0.092990659 0.45062035 0.00055002986 0.14816445 -0.98896253 0
0.055768728 -0.091553785 0.45082811 -0.0038975833 0.15097685 -0.98852956 0.00011811531
0.062394921 -0.094631284 0.4503831 -0.067632653 0.14611553 -0.98695296 0.013270373
0.073701039 -0.094127223 0.45045599 -0.38943991 0.18251319 -0.90278757 0.086545318
0.084366374 -0.092338152 0.45042983 -0.63855958 0.17371492 -0.74970978 0.087974697
-0.082205042 -0.084462307 0.45184231 0.71501261 0.24502264 -0.65476769 0.091931194
-0.07499028 -0.08592549 0.45164189 0.46106032 0.23400773 -0.85595781 0.083923802
-0.064862825 -0.085001186 0.45177549 0.18278433 0.22789979 -0.95637423 0.040276535
-0.055693571 -0.084524915 0.45184439 0.010013178 0.23632042 -0.97162366 0.006529422
-0.045488384 -0.083912194 0.45193303 0.0061823544 0.23737124 -0.97139937 0.0062669478
-0.034658115 -0.085230045 0.45174241 0.0029260619 0.2246501 -0.97443509 0.004250539
-0.024112003 -0.083057068 0.45205659 -0.019247748 0.27003148 -0.96265906 0.0096872617
-0.016568312 -0.084395863 0.45186308 0.0070465789 0.22423932 -0.9745087 0.0041350648
-0.0052772281 -0.08594694 0.45163876 -0.0015843282 0.21651746 -0.97627747 0.0036987704
0.0046591908 -0.085075855 0.45176479 -0.0063818255 0.21203995 -0.97724015 0.0033549573
0.015532124 -0.08480493 0.45180392 0.0030717733 0.23454612 -0.97210014 0.0057486081
0.025213506 -0.085000992 0.45177555 -0.0042272029 0.22856635 -0.97351915 0.0063773952
0.034601953 -0.084303275 0.45187646 -0.0041123843 0.21843088 -0.97584379 0.0045786723
0.045975223 -0.084325112 0.4518733 -0.0073691676 0.2439615 -0.9697569 0.008106865
0.056513485 -0.082943283 0.4520731 -0.033870332 0.24739438 -0.96832269 0.010096751
0.064380653 -0.086981781 0.45148924 -0.14259279 0.19924085 -0.96952063 0.038271002
0.075964086 -0.08474987 0.45181188 -0.43125492 0.24334951 -0.8687923 0.090469234
0.080466621 -0.085276939 0.45173568 -0.57306498 0.22918583 -0.78681022 0.088423297
-0.082856707 -0.076765187 0.45296639 0.53992349 0.22714481 -0.8104862 0.093176164
-0.076310582 -0.076088496 0.45306423 0.40626448 0.30616817 -0.86093563 0.077785708
-0.065888472 -0.073223554 0.45347846 0.26141575 0.37596834 -0.88899356 0.06935399
-0.05354182 -0.074742027 0.45325887 -0.0049765711 0.35251728 -0.93579209 0.01864518
-0.042568587 -0.075371705 0.45316789 0.0048452416 0.32542977 -0.94555378 0.01266294
-0.034766495 -0.07379517 0.45339581 -0.0059973951 0.36281633 -0.93184137 0.018599819
-0.026892917 -0.076626681 0.45298639 -0.0089372089 0.31024542 -0.95061445 0.011020363
-0.013871336 -0.076252058 0.45304054 -0.0010947773 0.32283658 -0.94645411 0.011904724
-0.0052229008 -0.073691525 0.45341077 0.0045447121 0.3848699 -0.92295969 0.018751837
0.0041901758 -0.075501427 0.45314908 0.0079232827 0.33907351 -0.94072652 0.013486425
0.01498202 -0.074194215 0.45333809 -0.023034895 0.33695641 -0.9412384 0.013587462
0.022973353 -0.076736368 0.45297053 -0.0077940044 0.32686144 -0.94504011 0.014470921
0.035083339 -0.076297112 0.45303401 0.0045275986 0.34910837 -0.93707144 0.018814703
0.044273313 -0.072817311 0.4535372 0.00078949711 0.41625321 -0.90924841 0.025399284
0.054709673 -0.07735844 0.45288065 -0.0060403123 0.32570466 -0.94545227 0.014648534
0.065371104 -0.074308582 0.45332158 -0.25273281 0.34153128 -0.9052527 0.069799095
0.076954149 -0.075655848 0.45312676 -0.54958767 0.28440735 -0.7855354 0.098433666
0.084384441 -0.073051006 0.45277339 -0.83225191 0.24003042 -0.49974212 0.10648487
-0.083614059 -0.064542986 0.45507538 0.85163492 0.31933272 -0.41562542 0.12092323
-0.074231222 -0.065157197 0.45589674 0.49141115 0.55844033 -0.6683259 0.11556503
-0.065320618 -0.067002043 0.45437804 0.24737005 0.52915573 -0.81166637 0.083245985
-0.054972894 -0.066079684 0.45521885 0.011027818 0.56951874 -0.82190442 0.02687127
-0.043847334 -0.065534458 0.45597222 0.012158218 0.55743462 -0.83013177 0.030695083
-0.033724427 -0.064624108 0.45734254 -0.0022808758 0.63259894 -0.77447605 0.025183685
-0.025818346 -0.065327577 0.45620364 0.043060865 0.58098489 -0.81277436 0.020358922
-0.014941775 -0.065082274 0.45682585 0.017313341 0.59599811 -0.80279917 0.029372498
-0.005530708 -0.06588731 0.45608774 -0.00043261849 0.56533653 -0.82486022 0.027201068
0.0050071776 -0.065089062 0.45653316 -0.020268276 0.57337022 -0.81904566 0.025377493
0.014267489 -0.064837627 0.45623654 0.012230974 0.64169538 -0.76686209 0.024092954
0.025651013 -0.066899717 0.455266 -0.019500336 0.542189 -0.84003025 0.024718614
0.033312287 -0.065117754 0.45600766 0.01455542 0.56507808 -0.82490897 0.025266429
0.04409242 -0.067360185 0.45480931 0.033567868 0.50709897 -0.86123383 0.023995893
0.053993534 -0.066932514 0.45510188 0.0017160476 0.51843274 -0.85511661 0.026746543
0.065940186 -0.066532977 0.45531708 -0.32043323 0.51059014 -0.79788488 0.091145016
0.074645594 -0.065037899 0.45621237 -0.53652042 0.47392744 -0.69823962 0.11558992
0.084489658 -0.06528531 0.45446813 -0.89205301 0.23855601 -0.38383919 0.084253803
-0.085182823 -0.054648012 0.45604873 0.92362779 0.34077942 -0.17544542 0.081434578
0.085182823 -0.056592654 0.45515361 -0.9320581 0.2395227 -0.27183923 0.069931082
-0.085182831 -0.04538976 0.4544808 0.95664006 0.27007696 -0.10907907 0.060032774
0.085182831 -0.044157039 0.45353889 -0.97138202 0.1807076 -0.15414862 0.046625588
-0.085182823 -0.03455849 0.45596987 0.99653238 0.073246419 -0.039474793 0.011742759
0.085182823 -0.036378995 0.45576331 -0.99372542 0.095339887 -0.058481351 0.017777644
-0.085182823 -0.023207068 0.45655271 1 4.6257242e-06 -3.7411613e-05 4.4085641e-06
-0.013398092 -0.023912303 0.45476499 0.43727294 0.89914358 0.018255344 0.025976224
-0.0063874391 -0.026862249 0.45529944 0.25074726 0.967713 0.025640653 0.026691545
0.0035869882 -0.028314516 0.45502093 -0.037169568 0.99930876 0.00051739742 0.029907938
0.014964708 -0.025706101 0.4536455 -0.37665591 0.92610902 -0.021271627 0.021578709
0.021672528 -0.022007611 0.45436907 -0.50802702 0.8612209 -0.014394261 0.017073363
0.085182838 -0.023928883 0.45621854 -1 -4.5244741e-07 -1.5978339e-05 3.1192212e-06
-0.085182816 -0.014415264 0.45504573 1 7.7778736e-07 2.0817759e-05 7.1832428e-06
-0.025605833 -0.013243357 0.45710987 0.73689294 0.676009 0.00080732175 0.007939389
-0.019986644 -0.019052248 0.45185757 0.61565489 0.78800392 0.0043430165 0.012471647
0.027931659 -0.016228214 0.4543519 -0.68148726 0.73179412 -0.0072388654 0.011706359
0.031444225 -0.012656774 0.45509505 -0.75439954 0.65641475 -0.0010557917 0.0047975751
0.085182838 -0.015116489 0.45456696 -1 -4.9782903e-07 2.319906e-08 3.0818794e-06
-0.085182823 -0.0059811426 0.45541137 1 4.91452e-07 -2.1044472e-05 6.7739325e-06
-0.032670386 -0.0040687281 0.45376408 0.82861102 0.55982488 5.3124688e-05 0.0040404778
-0.028820002 -0.0093699647 0.45675576 0.79646385 0.60456192 0.012258078 0.0065428247
0.035971709 -0.0065452605 0.45592001 -0.81686831 0.57682413 -0.00020450592 0.0052361656
0.085182831 -0.004760365 0.45461997 -1 -1.3100171e-07 -1.5480925e-08 4.5339539e-06
-0.085182823 0.0057895612 0.4532766 1 -1.00889e-07 -1.8066916e-05 1.0420706e-06
-0.037669498 0.0051847566 0.45379782 0.9021582 0.43136176 -0.0061297677 0.0033263948
0.042131562 0.0036668917 0.45676291 -0.89797926 0.43997833 0.0072323685 0.0049004466
0.085182823 0.0046500685 0.45384002 -1 2.8161517e-07 -8.6362135e-09 2.1590936e-06
-0.085182831 0.014510836 0.45568267 1 -7.4688506e-07 1.8021776e-05 4.3627006e-06
-0.041586325 0.015192208 0.45458984 0.94465894 0.32787466 -0.01085153 0.004460495
-0.039796673 0.010170327 0.45680788 0.93347985 0.35857034 0.0065330844 0.0050839661
0.046689399 0.015453557 0.45376959 -0.96291035 0.26981688 0.0015799346 0.0045566838
0.085182823 0.013835759 0.45639053 -1 -4.9912946e-06 6.803267e-05 7.6583547e-06
-0.085182831 0.024299785 0.45551091 1 4.1360389e-07 -3.1351759e-05 2.0916814e-06
-0.04404407 0.026374871 0.45719996 0.9886328 0.14999264 0.010360249 0.0039911577
0.048760846 0.024025433 0.45393169 -0.98242044 0.18667498 -0.0015918709 0.002998464
0.085182831 0.025106976 0.45546421 -1 -1.1568977e-07 4.1429848e-05 7.5686576e-06
-0.085182823 0.037078835 0.45446405 1 -2.87833e-06 -1.622705e-05 2.0069324e-06
-0.044935815 0.037222497 0.45403063 0.99981332 0.017720096 -0.0076979301 0.0049945684
0.049794406 0.032386813 0.45371044 -0.99697262 0.077752888 0.00019388345 0.0052590952
0.050070178 0.037284274 0.45589846 -0.99989772 -0.0077739651 0.012001269 0.0038352662
0.085182831 0.035750825 0.45361111 -1 5.2715507e-07 1.5212055e-05 3.166359e-06
-0.085182831 0.046878006 0.4560903 1 -3.1736638e-06 -3.7466303e-05 2.0427531e-06
-0.044476952 0.045208946 0.45519531 0.99361765 -0.11279994 -0.00026299662 0.0028504268
0.049608078 0.044915356 0.45437002 -0.99497312 -0.09984234 -0.0077465288 0.0051314491
0.085182831 0.04533292 0.45608807 -1 -8.5704482e-07 -1.8497132e-05 6.513224e-06
-0.085182831 0.057188559 0.45357561 1 4.3414834e-06 9.887998e-08 5.8139544e-06
