# .PCD v0.7 - Point Cloud Data file format
VERSION 0.7
FIELDS x y z normal_x normal_y normal_z curvature
SIZE 4 4 4 4 4 4 4
TYPE F F F F F F F
COUNT 1 1 1 1 1 1 1
WIDTH 565
HEIGHT 1
VIEWPOINT 0 0 0 1 0 0 0
POINTS 565
DATA ascii
-0.44638142 -0.024314104 0.013677309 -0.018088022 0.008654465 -0.99979895 0.062685311
-0.43501031 -0.023146803 0.01367731 0.0016352558 0.02382564 -0.99971479 0.058793217
-0.42461556 -0.025213048 0.01367731 -0.021653965 0.08062771 -0.99650908 0.053193387
-0.41540334 -0.024590643 0.013677308 0.053495575 -0.12583892 0.99060726 0.06461221
-0.40572131 -0.024543824 0.01367731 0.077026024 -0.14548886 0.98635691 0.059719998
-0.39577168 -0.022573356 0.01367731 0.10951039 -0.16440494 0.98029506 0.060443088
-0.38479179 -0.024598204 0.01344731 0.19390197 -0.30061862 0.93382573 0.088898696
-0.37493059 -0.025842628 0.012612939 0.2554701 -0.42565194 0.86807573 0.15331827
-0.36441731 -0.026084483 0.011712699 -0.049185995 0.33569193 -0.94068676 0.1877387
-0.3556442 -0.026593197 0.01108974 0.12841965 0.35159793 -0.92730105 0.19144094
-0.34424791 -0.025402725 0.011600699 0.20112234 0.44191191 -0.87422174 0.18566097
-0.33523542 -0.024652807 0.012455914 0.12761095 0.47851539 -0.86875689 0.11988903
-0.32496816 -0.023955571 0.014019463 0.053609829 0.40439683 -0.91301107 0.071906917
-0.3138248 -0.02351981 0.015412456 0.053819388 0.38263652 -0.92233008 0.041213248
-0.30470589 -0.02547542 0.014839338 0.0016593614 0.4539569 -0.89102209 0.047865849
-0.29489768 -0.024668749 0.015118581 0.028885225 0.42971313 -0.90250331 0.048957493
-0.28468934 -0.025635121 0.014748572 0.0097707175 0.52487016 -0.85112625 0.065278232
-0.27484357 -0.024456404 0.015229655 -0.019397095 0.4526895 -0.8914572 0.054645568
-0.26580134 -0.023900792 0.015481548 -0.063185297 0.40010718 -0.91428769 0.04540313
-0.25423881 -0.024342287 0.015420952 0.017336138 0.45157707 -0.89206368 0.049077485
-0.24442557 -0.024539609 0.015359554 -0.0023806454 0.44792515 -0.89406794 0.050692748
-0.23475149 -0.024700517 0.015386348 0.0012868679 0.48515904 -0.87442493 0.048008155
-0.22560309 -0.025762442 0.015083865 0.0059023974 0.52314872 -0.85222101 0.058506921
-0.21387354 -0.025141599 0.015464605 0.031302176 0.47930425 -0.87709039 0.06039042
-0.20471805 -0.024835104 0.015592525 0.043940928 0.45076609 -0.89155996 0.051658865
-0.19571467 -0.024318991 0.01603383 0.037972245 0.3943221 -0.9181875 0.049242236
-0.18474725 -0.024666734 0.015915431 0.025007667 0.39093298 -0.92007935 0.042352512
-0.17492528 -0.025093347 0.01603869 0.019602738 0.44245693 -0.89657545 0.042961519
-0.16436689 -0.025336659 0.016020065 0.033868916 0.38937697 -0.92045557 0.035741907
-0.15540101 -0.025163317 0.016034171 0.0014330186 0.31101018 -0.95040554 0.021356253
-0.14530508 -0.023844972 0.016377756 0.019781485 0.21559833 -0.97628176 0.013685247
-0.13534449 -0.024346789 0.016300593 0.0058476049 0.25715053 -0.96635365 0.023153111
-0.12530833 -0.024489745 0.016351767 0.032025211 0.23478884 -0.97151864 0.0089859292
-0.11571998 -0.025392553 0.016236888 0.010175962 0.22892462 -0.97339094 0.0091132531
-0.10369481 -0.024664415 0.016464628 0.015226073 0.21234363 -0.97707647 0.0079158926
-0.095761254 -0.024957014 0.016444793 0.004586299 0.22008045 -0.9754709 0.014696343
-0.084391229 -0.026207164 0.016307032 0.014836089 0.26104838 -0.96521175 0.012584444
-0.075644642 -0.025216008 0.01650993 0.0093979873 0.22197954 -0.97500604 0.0098406272
-0.065303698 -0.025615968 0.016395554 0.01508543 0.21516803 -0.97646052 0.0097388364
-0.054490048 -0.0243633 0.016568348 0.0021702973 0.15789621 -0.98745334 0.0075433915
-0.046995554 -0.025006024 0.016515981 -0.0081998818 0.17411005 -0.98469204 0.0056902636
-0.035515171 -0.024346204 0.016578363 -0.0049907514 0.14696245 -0.98912942 0.0061285174
-0.026246313 -0.024505002 0.016600506 -0.0065698037 0.14219636 -0.98981667 0.0051756459
-0.015042445 -0.024955479 0.016555704 0.010598935 0.15398444 -0.98801643 0.0040915771
-0.0041599618 -0.02551215 0.016614158 0.012506159 0.16872637 -0.9855836 0.0057062507
0.0055091367 -0.02509057 0.016616486 0.010949095 0.14542699 -0.98930842 0.0039228075
0.014824645 -0.025055526 0.016623821 -0.0010303537 0.14044927 -0.99008733 0.0036641059
0.025649028 -0.026071345 0.016620662 0.0080008013 0.12925982 -0.99157846 0.0031740787
0.03495739 -0.025271868 0.01662226 0.0096402057 0.099056311 -0.99503511 0.0028704645
0.045022819 -0.024812181 0.016623821 -0.002332174 0.099898584 -0.99499488 0.0027676062
0.055160526 -0.026519902 0.016623821 -0.0056569395 0.11053145 -0.99385649 0.0024553456
0.063341439 -0.025065651 0.016623821 -0.0057589598 0.10573301 -0.99437791 0.0029514486
0.075207815 -0.024145244 0.016623821 0.0027317794 0.086255789 -0.99626935 0.0033477528
0.086575039 -0.025111763 0.016623821 0.0074435128 0.10974474 -0.99393189 0.002904048
0.095096774 -0.024937721 0.016623821 0.010160968 0.10811121 -0.99408686 0.0029550942
0.10514019 -0.0249954 0.016623821 0.00049616228 0.12386333 -0.99229914 0.0024988933
0.11406561 -0.024903562 0.016623821 -0.0015005633 0.10198363 -0.99478489 0.003036102
0.12467088 -0.024962576 0.016623821 -0.00058949488 0.11381819 -0.99350148 0.0023544913
0.13445841 -0.024801996 0.016623823 0.0031480168 0.11425938 -0.99344599 0.0026188574
0.14548448 -0.026170429 0.016623821 0.009143766 0.11382414 -0.99345887 0.0025610034
0.1559172 -0.024867635 0.016623823 -0.0080675809 0.081505053 -0.99664026 0.0029427086
0.1643602 -0.024867531 0.016623821 -0.003907037 0.098275825 -0.99515152 0.002778996
0.1745955 -0.024443274 0.016623823 0.0028661173 0.083123036 -0.99653518 0.0027951207
0.18622455 -0.024136012 0.016623821 0.0077569378 0.079839967 -0.99677747 0.0028164305
0.19448195 -0.02389726 0.016623821 0.011515446 0.076646991 -0.99699187 0.0028746694
0.205268 -0.024792084 0.016623821 0.0079961931 0.086116768 -0.99625295 0.0028655136
0.21500707 -0.025345599 0.016623821 0.0035054358 0.080989629 -0.99670875 0.0024383906
0.22467497 -0.02396208 0.016623821 -0.0010263378 0.069860853 -0.99755627 0.0024275831
0.23374163 -0.023806823 0.016623821 -0.00075767667 0.071043335 -0.99747294 0.0027537097
0.24439096 -0.02470104 0.016623823 0.0013719392 0.091719992 -0.99578387 0.0023353628
0.25535202 -0.024779769 0.016623823 -0.0027697838 0.075420514 -0.99714792 0.0026034198
0.26476926 -0.024798699 0.016623823 0.0064800796 0.088349581 -0.99606848 0.002120381
0.27521515 -0.024986338 0.016623823 0.0062276372 0.080220133 -0.99675769 0.0029115928
0.28589252 -0.024893755 0.016623821 0.011027976 0.078845657 -0.99682581 0.0026241569
0.29500446 -0.025221802 0.016623821 0.0072626132 0.084801368 -0.99637139 0.0019497361
0.3037264 -0.025530588 0.016623821 -0.00011363905 0.094709188 -0.99550498 0.0020457776
0.31566429 -0.024064181 0.016623823 -0.000846977 0.056821734 -0.998384 0.0022950831
0.32440177 -0.024648935 0.016623821 0.0034627996 0.081422389 -0.9966737 0.0018039487
0.33404803 -0.024729729 0.016623821 0.0059840153 0.066940792 -0.99773896 0.002702473
0.34471381 -0.02623996 0.016623821 -0.0026807557 0.088318832 -0.99608862 0.0020957191
0.35391226 -0.025964491 0.016623821 -0.0049361032 0.079479963 -0.99682426 0.0018687221
0.36409134 -0.024268623 0.016623821 6.6682856e-05 0.055065513 -0.99848276 0.0025308693
0.37505451 -0.025499459 0.016623821 0.002224233 0.068828158 -0.99762607 0.0016228617
0.38490951 -0.025011063 0.016623823 0.0049437955 0.053922202 -0.99853289 0.0021514727
0.3953529 -0.024756359 0.016623821 0.0046588457 0.050756443 -0.99870014 0.0022082876
0.40523806 -0.025644923 0.016623821 0.0010094488 0.051103022 -0.99869293 0.002008694
0.41408178 -0.027046483 0.016623823 -0.0041050501 0.079438955 -0.99683124 0.0019074986
0.42457011 -0.025246244 0.016623821 -0.0025977343 0.060512878 -0.99816406 0.0013765496
0.43577135 -0.024771443 0.016623821 0.0026503657 0.04632185 -0.99892306 0.00083502039
0.44523215 -0.023927141 0.016623821 -0.0013754449 0.0223407 -0.99974948 0.0014478998
0.45576674 -0.024252554 0.016623821 0.0012316448 0.041904211 -0.99912083 0.0018864244
0.46434501 -0.024893535 0.016623823 -0.0101547 0.042041093 -0.99906427 0.0010022463
0.47504878 -0.025827896 0.016623821 -0.13443203 0.042481087 -0.99001181 0.016414838
0.48598394 -0.024254341 0.016623821 -0.45584235 0.053713888 -0.88843828 0.051219597
0.49279624 -0.025211541 0.01410507 -0.65798509 0.0088255592 -0.75297916 0.075041011
-0.49614894 -0.015254756 0.012997222 0.92448443 -0.024689384 -0.38041928 0.099890038
-0.48518136 -0.015344597 0.01367731 0.6325869 0.034375384 -0.77372617 0.13132462
-0.47446078 -0.015087998 0.013677308 0.23062316 -0.048462026 -0.97183555 0.082635783
-0.46613619 -0.014502823 0.01367731 0.20078051 -0.027582023 -0.97924787 0.082806952
-0.45543158 -0.014368486 0.013677308 -0.0054372526 0.01021755 -0.999933 0.066703022
-0.44582886 -0.014277888 0.013677306 -0.0059356969 0.0026549953 -0.9999789 0.067074865
-0.43569386 -0.014474923 0.01367731 -0.010233599 0.003258385 -0.99994236 0.066508099
-0.4254013 -0.014674668 0.013677306 0.0059712976 -0.0011014477 -0.99998158 0.071315929
-0.41576815 -0.015960941 0.013677309 -0.016273685 0.0085948622 -0.9998306 0.059828173
-0.40514114 -0.014191633 0.013677306 -0.017024046 0.031059725 -0.99937254 0.056953005
-0.39469004 -0.014800492 0.01367731 0.057094645 -0.062652476 0.99640101 0.057460312
-0.38472682 -0.014074839 0.013443924 0.1573562 -0.073680818 0.98478943 0.084718101
-0.37402734 -0.014842461 0.012509948 0.31516141 -0.081299908 0.94554943 0.168584
-0.36322749 -0.01601813 0.011586791 0.0095938211 0.084603608 -0.99636853 0.20285906
-0.35477424 -0.014519826 0.01154119 0.37398809 0.093121141 -0.92274666 0.17975515
-0.34579715 -0.015767936 0.012741841 0.35971984 0.15512227 -0.9200753 0.16516723
-0.33581862 -0.014702374 0.013977505 0.17621274 0.10704228 -0.97851467 0.019397777
-0.32557002 -0.015599133 0.015246606 0.076672852 0.13996676 -0.98718315 0.0052444786
-0.31563392 -0.015553706 0.016376279 0.050516419 0.16046111 -0.98574865 0.007488606
-0.30510455 -0.015949402 0.016623819 0.019074487 0.14934811 -0.98860067 0.0056702727
-0.29611924 -0.014228256 0.016623821 -0.013692992 0.099855095 -0.9949078 0.0090629105
-0.28529993 -0.014782085 0.016623821 -0.010905035 0.09745688 -0.99518001 0.0097176684
-0.27464557 -0.014787285 0.016623821 0.0051716813 0.08261773 -0.99656796 0.01172773
-0.26421887 -0.014577691 0.016623821 -0.0077319415 0.080729529 -0.99670607 0.013892302
-0.25632545 -0.014705264 0.016623823 -0.021140242 0.074031733 -0.99703175 0.015032517
-0.24592814 -0.01407315 0.016623821 -0.019309303 0.062378373 -0.9978658 0.016579455
-0.23333538 -0.014696295 0.016623821 0.011648762 0.057496879 -0.99827772 0.018455172
-0.22480029 -0.015895968 0.016623819 -0.0025692589 0.10040411 -0.99494344 0.024409428
-0.21550393 -0.014334027 0.016623823 0.017018892 0.0097680399 -0.99980748 0.027716724
-0.20500194 -0.01483047 0.016623817 -0.01480109 0.06886588 -0.99751604 0.025143476
-0.19552606 -0.015261668 0.016623821 -0.0089187389 0.031958487 -0.99944943 0.020041062
-0.18599881 -0.014328064 0.016623821 -0.015984386 0.027010234 -0.99950731 0.017229417
-0.17422701 -0.015446525 0.016623821 0.02295284 0.050622158 -0.99845409 0.021610701
-0.1647743 -0.015699683 0.016623821 0.035969932 0.039103519 -0.99858761 0.020570083
-0.15452947 -0.014578117 0.016623821 0.02144213 -0.0024207656 -0.99976712 0.013939502
-0.14591944 -0.01560923 0.016623821 -0.0044364003 0.0096700285 -0.99994344 0.012226477
-0.13496752 -0.015185682 0.016623821 0.00040390261 0.0067898524 -0.99997687 0.012020116
-0.12482902 -0.015661491 0.016623823 -0.009559541 0.0072357608 -0.99992812 0.011831361
-0.11480371 -0.015656222 0.016623821 0.018782364 0.0069807661 -0.99979925 0.010940206
-0.10537028 -0.013558116 0.016623821 0.010746713 -0.010956869 -0.99988222 0.011550704
-0.094739765 -0.014962327 0.016623821 -0.0088064959 0.024405958 -0.99966335 0.0089653935
-0.085623644 -0.01509707 0.016623821 -0.0012985378 0.0059326291 -0.99998158 0.0087203998
-0.075327754 -0.014984369 0.016623821 -0.0012913349 0.0042033629 -0.99999034 0.0083267493
-0.064727701 -0.015272866 0.016623821 0.016781354 0.0028142324 -0.99985522 0.0075159022
-0.05489796 -0.014863887 0.016623823 0.024372322 0.0049765348 -0.99969059 0.0060409405
-0.044195622 -0.014381225 0.016623819 0.012919266 -0.0042371219 -0.99990755 0.0067175427
-0.035755932 -0.01498947 0.016623821 -0.0095690489 -0.014264981 -0.99985248 0.0056414027
-0.02496154 -0.015818218 0.016623821 -0.0032371748 0.0060188253 -0.99997669 0.0052012885
-0.01466562 -0.01563124 0.016623821 0.0049431012 -0.0081265979 -0.99995476 0.0043415516
-0.0044822362 -0.014420127 0.016623821 0.0051106345 -0.024161201 -0.99969494 0.0052681318
0.0051877839 -0.013754678 0.016623819 0.0089756483 -0.036777984 -0.99928313 0.0034266801
0.013774301 -0.016080011 0.016623821 0.0054428107 -0.0075200684 -0.99995685 0.0036282509
0.024180943 -0.015098427 0.016623821 0.0052918582 -0.0040489733 -0.99997777 0.0037425668
0.034407202 -0.014769581 0.016623823 0.0015354309 -0.0075215478 -0.99997056 0.0036063362
0.045436371 -0.014225376 0.016623821 0.01092793 -0.036594566 -0.99927044 0.0031221467
0.05487898 -0.015045861 0.016623821 0.00018284091 0.0037532111 -0.99999297 0.0030990487
0.065611675 -0.015398876 0.016623821 0.00084885553 0.026798971 -0.99964046 0.0014246082
0.074505635 -0.015010174 0.016623823 -0.0034369354 -0.028495077 -0.99958801 0.0027015791
0.085877411 -0.014560771 0.016623821 -0.006902256 -0.025124848 -0.99966043 0.0025032796
0.096083134 -0.014929791 0.016623821 -0.0012606162 -0.011203951 -0.99993646 0.0021568704
0.10371614 -0.014633236 0.016623823 -0.00059692113 -0.029253718 -0.99957186 0.0028405837
0.11496463 -0.015824977 0.016623823 -0.0055142692 -0.0063960361 -0.99996442 0.0028853973
0.12473756 -0.015714237 0.016623821 0.0011890917 -0.021033209 -0.99977809 0.0017282945
0.13522425 -0.014588195 0.016623823 0.0055840169 -0.045129463 -0.99896556 0.0026175012
0.14510112 -0.016132256 0.016623823 0.0045976653 -0.0054507107 -0.99997461 0.0025367641
0.15429193 -0.014196532 0.016623821 -0.00069623021 -0.046139419 -0.99893475 0.0026989386
0.16393946 -0.013748867 0.016623821 0.0041680099 -0.051052276 -0.99868733 0.0029426317
0.17462115 -0.01630966 0.016623821 -0.0067877215 -0.0080817435 -0.99994433 0.002342324
0.18439345 -0.01548743 0.016623821 -0.0040830434 -0.023093237 -0.99972498 0.0029271869
0.19561252 -0.014360609 0.016623821 0.002424085 -0.054097861 -0.99853271 0.0029061136
0.20501697 -0.016313793 0.016623821 -0.0016735217 -0.0055031814 -0.99998343 0.0031174889
0.21368733 -0.014807744 0.016623823 0.0032370659 -0.037496276 -0.99929154 0.0037686559
0.22507322 -0.014869141 0.016623821 -0.0054965862 -0.046860002 -0.99888635 0.0022302482
0.23560487 -0.01486674 0.016623821 -0.0035344108 -0.057654209 -0.99833041 0.0029459265
0.24527459 -0.014176451 0.016623821 -0.00029285171 -0.058696255 -0.99827582 0.0029248314
0.25494274 -0.014531367 0.016623821 -8.3140352e-05 -0.062438868 -0.99804878 0.0027280622
0.26566753 -0.014234805 0.016623821 0.006552815 -0.063899621 -0.99793488 0.0027191669
0.27547735 -0.015614547 0.016623821 0.0044387537 -0.041443337 -0.99913096 0.0014860871
0.28455356 -0.016403407 0.016623821 -0.0073538213 -0.036026932 -0.99932379 0.0030527369
0.29475564 -0.015874606 0.016623821 -0.0016074905 -0.021419711 -0.99976927 0.0021279869
0.30482569 -0.014053671 0.016623821 -0.0024957401 -0.067288436 -0.99773043 0.002255338
0.31516892 -0.015136442 0.016623821 0.00026747075 -0.06818492 -0.99767268 0.0027063221
0.32587641 -0.014609314 0.016623821 0.0029115707 -0.069749378 -0.99756026 0.0025455456
0.33425036 -0.014892164 0.016623819 -0.0033520306 -0.069646329 -0.9975661 0.0025388321
0.34527418 -0.01514105 0.016623823 0.0039451495 -0.073774472 -0.99726719 0.0027304143
0.35535842 -0.014470823 0.016623823 0.0012300075 -0.07584177 -0.99711913 0.0026265881
0.36441818 -0.014955784 0.016623821 0.0017692705 -0.075804017 -0.99712121 0.0029113798
0.37468064 -0.014371376 0.016623821 5.8309772e-05 -0.074684553 -0.99720722 0.002436786
0.38414299 -0.014926286 0.016623821 -0.0040522153 -0.075212218 -0.99715936 0.002688678
0.39477366 -0.015064081 0.016623823 0.00080236548 -0.075176299 -0.99716997 0.0027788063
0.40434206 -0.013750721 0.016623817 -0.0054858536 -0.076876141 -0.99702555 0.0029912191
0.41418421 -0.015612709 0.016623821 0.0041952101 -0.051170412 -0.99868107 0.0034519355
0.42391488 -0.015330718 0.016623821 -0.01148563 -0.059522618 -0.9981609 0.0036007999
0.43532339 -0.013860774 0.016623821 -0.001007801 -0.07742817 -0.99699742 0.0029647292
0.44655851 -0.015889324 0.016623821 0.0010363816 -0.065192975 -0.99787211 0.0039329776
0.4551304 -0.01469955 0.016623821 0.0013960883 -0.078227185 -0.99693453 0.0032002865
0.46593469 -0.01511611 0.016623823 -0.022019893 -0.068388626 -0.99741578 0.0038631775
0.47484651 -0.013987599 0.016623821 -0.13483609 -0.06623394 -0.98865175 0.016354429
0.48607424 -0.015052897 0.016623823 -0.45836779 -0.018953504 -0.88856041 0.052446183
0.49316993 -0.015812859 0.013817858 -0.60077113 -0.06093207 -0.7970956 0.055850137
-0.49501342 -0.0044199927 0.012707753 0.97265494 -0.029036369 -0.23043272 0.091585122
-0.48476747 -0.0040907259 0.013677309 0.70448238 -0.0053412095 -0.70970142 0.13339905
-0.47502136 -0.0050753909 0.013677309 0.24946573 -0.0089424457 -0.96834236 0.10431428
-0.46431208 -0.0047037527 0.013677308 0.18804227 -0.0029611194 -0.98215646 0.081603982
-0.45411539 -0.0048909565 0.01367731 0.012711996 0.00062561664 -0.99991894 0.067597352
-0.44620848 -0.0051838593 0.013677308 -0.018626221 -0.012177829 -0.99975228 0.067731403
-0.43464011 -0.0051527224 0.013677308 -0.0080909329 0.0017925411 -0.99996573 0.062155247
-0.42513847 -0.0054731318 0.013677309 -0.011906255 -0.005925376 -0.99991161 0.058545187
-0.41427916 -0.0052098446 0.013677309 0.0056326385 0.0043282728 -0.99997479 0.063784525
-0.40391394 -0.0058114487 0.013677309 -0.0096614566 -0.0085628964 -0.99991667 0.067263715
-0.39472082 -0.0041914335 0.01367731 -0.023136489 0.00055965089 -0.99973214 0.070685945
-0.38492265 -0.0051235054 0.013450807 0.13847667 -0.0032398808 0.9903605 0.084343672
-0.37607244 -0.0032533759 0.012675927 0.2756027 -0.074962862 0.95834428 0.15975863
-0.36497706 -0.0052344427 0.011711037 0.17442046 0.078516088 0.98153591 0.23102856
-0.35599861 -0.0046726549 0.011403856 0.24805313 0.045691673 -0.96766829 0.22781165
-0.34292942 -0.0033942699 0.013096956 0.3191762 -0.012567584 -0.94761205 0.11340515
-0.3353416 -0.005326801 0.014036566 0.17001954 -0.012842282 -0.98535705 0.018097827
-0.32432818 -0.0050497609 0.015400388 0.077793293 -0.029094454 -0.9965449 0.0030773759
-0.31582662 -0.0047963909 0.016422419 0.038423438 -0.042336788 -0.99836427 0.0069747581
-0.30553222 -0.0053876592 0.016623823 -0.0098137381 -0.049429294 -0.99872947 0.010011269
-0.29539347 -0.0034679244 0.016623821 -0.016882084 -0.12253537 -0.9923206 0.013508092
-0.28599745 -0.0056573348 0.016623821 -0.013742948 -0.085601114 -0.99623466 0.013273978
-0.27499536 -0.0053464696 0.016623821 -0.026487036 -0.12743765 -0.99149287 0.020777399
-0.26493919 -0.0052193361 0.016623823 -0.044393025 -0.1251978 -0.9911381 0.018731598
-0.25553694 -0.0052482053 0.016623823 0.010251656 -0.12370704 -0.99226582 0.018491508
-0.24446326 -0.0041844407 0.016623821 -0.028198346 -0.17424683 -0.98429817 0.019602189
-0.23471548 -0.0043475372 0.016623823 -0.026008237 -0.23575458 -0.97146451 0.032077525
-0.22693118 -0.0053516794 0.016608078 -0.036233559 -0.21364282 -0.97623968 0.031776145
-0.21536782 -0.0040363278 0.016574359 -0.034755573 -0.32799143 -0.94404113 0.044646073
-0.20630425 -0.0051509626 0.016623819 0.011731117 -0.27008858 -0.96276402 0.042074788
-0.19497293 -0.0053310031 0.016622948 0.010754487 -0.25911531 -0.96578652 0.029459709
-0.1845718 -0.0048888153 0.016586507 0.03442689 -0.34095332 -0.93944967 0.02928246
-0.17437749 -0.0054709497 0.016623821 0.010788556 -0.25635764 -0.9665218 0.027871672
-0.16526403 -0.0044852966 0.016608728 0.017247207 -0.30394989 -0.95253193 0.025765317
-0.15550075 -0.0061673415 0.016623821 0.021698298 -0.18110749 -0.98322392 0.019058788
-0.14520605 -0.004705715 0.016623821 0.011309601 -0.23903704 -0.97094458 0.012083931
-0.13526559 -0.0046370621 0.016620614 -0.0024505227 -0.2320746 -0.97269487 0.011281951
-0.12456691 -0.0056135911 0.016623821 0.027395865 -0.23030975 -0.97273171 0.011215572
-0.11464377 -0.005010779 0.016623821 0.033162028 -0.19581242 -0.98008054 0.013807166
-0.10387836 -0.0049122958 0.016623821 0.017680537 -0.21568933 -0.97630203 0.011699845
-0.096194863 -0.0046757204 0.016623819 0.008996659 -0.22504421 -0.974307 0.011564719
-0.085070372 -0.0049507925 0.016623823 0.0039953254 -0.20738947 -0.97825027 0.010570063
-0.075461164 -0.0060507115 0.016623823 -0.0051026577 -0.16718079 -0.98591298 0.011474557
-0.063661411 -0.0056571849 0.016623821 0.02587441 -0.16275284 -0.98632753 0.0093093766
-0.055382267 -0.0060517946 0.016623821 -0.0023470728 -0.128584 -0.99169582 0.010829082
-0.045204982 -0.0055052596 0.016623821 0.014027176 -0.15105136 -0.98842639 0.0091675594
-0.035396922 -0.0047078682 0.016623821 0.0033601904 -0.17137459 -0.98520023 0.0067753266
-0.025307618 -0.0043882425 0.016623821 0.0013936758 -0.19094902 -0.98159903 0.0096784458
-0.014674888 -0.0055533396 0.016623821 0.01061298 -0.1427958 -0.98969531 0.0079288082
-0.00569817 -0.005659922 0.016623821 -0.0066053057 -0.13941278 -0.99021238 0.0076556792
0.0046925033 -0.0051235873 0.016623821 0.018218009 -0.1659901 -0.98595911 0.0071860142
0.015101531 -0.0048153098 0.016623821 0.0037761463 -0.13190384 -0.99125534 0.0064603626
0.024701107 -0.0044235559 0.016623821 0.0020103126 -0.14618532 -0.98925519 0.0060313744
0.035205033 -0.0060010306 0.016623821 -0.00058977451 -0.12634352 -0.99198639 0.0061323089
0.043646231 -0.0055674743 0.016623817 -0.0063256775 -0.14386764 -0.9895767 0.0059085125
0.056058489 -0.0055227182 0.016623823 0.0083159218 -0.11775066 -0.99300832 0.0065851719
0.065312497 -0.0052395058 0.016623823 0.0068005812 -0.13470148 -0.99086291 0.0063857646
0.074012965 -0.0052163075 0.016623823 -0.0014818185 -0.1302671 -0.99147785 0.0059570051
0.08371748 -0.0036173761 0.016623821 0.0084154261 -0.16701275 -0.98591882 0.0061901794
0.093619891 -0.0048202304 0.016623823 -0.017877992 -0.14937988 -0.98861825 0.0051453039
0.10341446 -0.004208548 0.016623823 -0.0070924941 -0.18062057 -0.98352724 0.0078461552
0.11551768 -0.0057395627 0.016623819 0.0069088545 -0.15355125 -0.98811656 0.005787537
0.12499958 -0.005494257 0.016623821 0.008898058 -0.13517757 -0.99078143 0.0060815029
0.13509224 -0.004327029 0.016623823 0.0081471484 -0.15288009 -0.9882111 0.0057952739
0.14532073 -0.0048320983 0.016623819 -0.0073296535 -0.15294813 -0.98820704 0.0060281274
0.15455143 -0.0044891951 0.016623821 0.00031230747 -0.13878177 -0.99032295 0.0063655227
0.16414185 -0.0063987523 0.016623821 -0.005469304 -0.12460609 -0.99219126 0.0067815259
0.17532618 -0.0053382171 0.016623817 0.0083916876 -0.13901952 -0.9902541 0.0064226897
0.18436567 -0.0045248535 0.016623819 -0.010635281 -0.15785931 -0.98740435 0.0057783537
0.19594075 -0.0055835452 0.016623821 0.0051517356 -0.14454466 -0.98948491 0.0065489602
0.20509303 -0.0050254771 0.016623819 -0.011774865 -0.16326889 -0.98651135 0.0060469946
0.21444646 -0.0048662266 0.016623821 -0.0020139064 -0.17126718 -0.98522252 0.0092291478
0.22452652 -0.0041201441 0.016623823 0.010823232 -0.17539386 -0.98443884 0.0060913749
0.23568133 -0.0043197619 0.016623821 0.011728322 -0.19174951 -0.98137379 0.0086435219
0.24572299 -0.0044869594 0.016623821 0.0064819418 -0.1911107 -0.98154712 0.00860905
0.254296 -0.0046574506 0.016623821 -0.011616983 -0.16649908 -0.98597324 0.0061784973
0.26562798 -0.0049155452 0.016623817 -0.0019728546 -0.15011378 -0.98866677 0.0062902821
0.27456105 -0.0048244474 0.016623823 -0.0017345587 -0.16560027 -0.98619151 0.0059858509
0.28442788 -0.004844937 0.016623823 0.00078290206 -0.15097222 -0.98853767 0.0066371239
0.29525033 -0.0054649822 0.016623821 -0.010859259 -0.15005207 -0.98861837 0.0064280429
0.3039661 -0.0051075872 0.016622191 -0.010050825 -0.15139401 -0.98842239 0.0065080426
0.31509736 -0.0047926367 0.01661971 0.0003877173 -0.16500583 -0.98629248 0.006195663
0.3256079 -0.0045734523 0.016618747 0.0037037546 -0.15526968 -0.98786515 0.0064648106
0.33569705 -0.0049755247 0.016623821 0.0057266355 -0.16381904 -0.98647374 0.0054508834
0.34565005 -0.0054086903 0.016621776 0.0052735009 -0.15038584 -0.98861331 0.0058397437
0.35469159 -0.0045032809 0.016621869 -0.00093851489 -0.18598422 -0.98255229 0.0060064341
0.36534199 -0.0059300656 0.016604239 -0.0084120641 -0.14660037 -0.98916 0.0062383418
0.37519592 -0.005536546 0.016608853 0.0029600286 -0.1605754 -0.98701912 0.0061659785
0.38416499 -0.0049980334 0.016609699 -0.014025419 -0.17197169 -0.9850021 0.0057350555
0.39603156 -0.005934055 0.016620448 0.0080971494 -0.16109282 -0.98690605 0.006342629
0.40480044 -0.005170289 0.016596181 -0.0026901788 -0.1779073 -0.9840436 0.0063276817
0.41518208 -0.0048134876 0.01658822 0.0043549454 -0.20165898 -0.97944611 0.0091080898
0.42497021 -0.0045232917 0.016563311 0.00035029149 -0.17932916 -0.98378909 0.0060924604
0.43446246 -0.0053543458 0.016599985 -0.0069633499 -0.17879687 -0.98386139 0.0060623228
0.44554928 -0.0051482208 0.016565718 0.0095169898 -0.18028998 -0.98356742 0.0061389422
0.4546406 -0.0045474316 0.016590327 -0.0042882743 -0.20754795 -0.9782154 0.0085116168
0.46561792 -0.0044043539 0.01654049 -0.013694458 -0.1759356 -0.9843064 0.0057115853
0.47441217 -0.0041321903 0.016536156 -0.13322237 -0.19133765 -0.97244108 0.018708372
0.48383921 -0.0059653744 0.016553197 -0.40477276 -0.13043739 -0.90506637 0.052290712
0.49274752 -0.0054166587 0.013721498 -0.55285889 -0.14040123 -0.82136136 0.051740453
-0.49308646 0.005228336 0.01289822 0.97439951 -0.0088713598 -0.22464852 0.11001988
-0.48451859 0.0039283535 0.013677309 0.69522893 0.0099462401 -0.71871954 0.14019318
-0.47567263 0.0049433592 0.013677306 0.23838989 0.036607742 -0.97047931 0.097918302
-0.46468768 0.0057215551 0.01367731 0.14893369 -0.0092148632 -0.98880428 0.078533381
-0.45525837 0.0053132796 0.013677309 -0.0071722865 0.004525329 -0.99996406 0.071200617
-0.44410926 0.0031777716 0.013677307 0.0093420884 -0.023440545 -0.99968159 0.067675315
-0.43435505 0.0054406365 0.01367731 0.0088567603 -0.0045835576 -0.99995029 0.062118374
-0.42412531 0.004316797 0.013677309 0.0079998178 -0.012338554 -0.99989182 0.062413607
-0.41349584 0.0048623518 0.01367731 0.0033196777 -0.0010481076 -0.99999398 0.058607575
-0.40488684 0.0041374173 0.013677307 -0.0048226807 -0.010316841 -0.99993509 0.049631011
-0.39623764 0.0046968083 0.013677307 -0.031797454 -0.0082367528 -0.99946046 0.055668451
-0.38541284 0.0043293638 0.01346885 0.10056921 0.047185224 0.99381053 0.048201714
-0.37521276 0.0050671655 0.012597571 0.28317305 0.06909319 0.95657682 0.13976863
-0.36503789 0.0036691686 0.011695603 0.18552306 0.02928119 0.9822036 0.20824219
-0.35576385 0.0056872545 0.011458107 0.064208046 -0.076853864 -0.99497277 0.22256877
-0.34571794 0.0054975785 0.012751653 0.31618288 -0.21938795 -0.92298281 0.17440756
-0.33603275 0.0052979775 0.013950982 0.15758564 -0.15491378 -0.97527868 0.038642745
-0.32404613 0.0054212892 0.015433549 -0.0052234316 -0.27928734 -0.9601934 0.037471659
-0.31529441 0.0042853979 0.016375508 0.01280106 -0.19650993 -0.98041826 0.01511749
-0.30410835 0.0049109012 0.016314253 -0.0079107471 -0.3580583 -0.93366575 0.031267893
-0.29422319 0.0045811231 0.016313957 -0.056353994 -0.33551195 -0.94034886 0.0287329
-0.28563747 0.0044382592 0.016102912 -0.051998787 -0.41646624 -0.90766293 0.028515188
-0.27532652 0.0054552206 0.01562503 0.05995154 0.44566309 0.8931911 0.041946806
-0.26411191 0.0057793176 0.015232301 -0.0060857874 -0.51905477 -0.85471928 0.0605691
-0.25489405 0.0039080111 0.015567604 0.013149941 -0.46306664 -0.88622588 0.055905189
-0.24504957 0.0047661974 0.014722296 0.071021825 0.54138941 0.83776689 0.067519061
-0.23600414 0.0057394328 0.01375476 0.10573376 0.63603014 0.76438606 0.060886964
-0.22537871 0.0053163511 0.013244586 0.078281276 0.70564532 0.70422781 0.070778914
-0.21521169 0.0043572555 0.013312937 -0.036010005 -0.65148979 -0.75780219 0.077792242
-0.20528327 0.0039286274 0.013513871 -0.021013441 -0.61667806 -0.78693485 0.086779311
-0.19558585 0.0036971604 0.013824009 -0.009645178 -0.66108006 -0.75025338 0.080761023
-0.18573254 0.0049134959 0.013165828 0.025427796 -0.66748512 -0.74418885 0.079319395
-0.17412187 0.0049550468 0.013346895 0.0080797784 -0.69339013 -0.72051704 0.077256843
-0.16348097 0.0047330181 0.013578028 0.033223122 -0.65881413 -0.75157171 0.058004666
-0.15628307 0.0050857994 0.01339135 -0.022940071 -0.69469786 -0.71893579 0.082014449
-0.1440426 0.0058890134 0.013187203 0.069795489 -0.65593714 -0.75158167 0.084273763
-0.1344427 0.0046473155 0.013966505 0.039131541 -0.57597113 -0.81653285 0.070432939
-0.12591425 0.0056650834 0.013591336 0.0049584401 -0.62890053 -0.77746993 0.069783799
-0.11591823 0.0061340383 0.013515125 0.0021788122 -0.65064788 -0.75937647 0.070247442
-0.10575686 0.0060377712 0.013734411 0.013180065 -0.6159513 -0.78767395 0.06205412
-0.094725788 0.0047928235 0.01454214 0.046315435 -0.53287506 -0.84492552 0.055720437
-0.084532827 0.0052969893 0.014374794 0.038993027 -0.59732932 -0.80104762 0.065315977
-0.075106494 0.0054570553 0.014413071 0.021360088 -0.53361779 -0.845456 0.048269674
-0.064856477 0.0052501308 0.014593497 0.0029414112 -0.5668698 -0.82380205 0.054627612
-0.0548972 0.0053299172 0.014677979 -0.016748263 -0.50084269 -0.86537629 0.049682338
-0.044760905 0.0052243411 0.014819815 0.022575052 -0.5376792 -0.84284723 0.05526166
-0.035904504 0.0046846336 0.015110587 0.014376019 -0.48375326 -0.87508631 0.050486591
-0.024716068 0.0042023747 0.01537841 0.039350167 -0.4215205 -0.90596467 0.036145538
-0.014658418 0.0054646567 0.014996529 0.031334568 -0.48847538 -0.87201488 0.047064766
-0.0049549434 0.0063028932 0.014778994 0.013948207 -0.48387238 -0.87502742 0.057170916
0.0049413391 0.0052746478 0.015236046 -0.0014877606 -0.45479631 -0.89059424 0.03656438
0.014679769 0.005152775 0.015385713 0.012054553 -0.39058664 -0.92048723 0.025707535
0.025081972 0.0057100058 0.015275753 0.043412965 -0.47834164 -0.87709999 0.047256913
0.03492536 0.0046227272 0.015731106 -0.00061759318 -0.31541103 -0.94895494 0.020121299
0.045281693 0.0032899773 0.016072584 0.01456099 -0.30742854 -0.95145977 0.018887505
0.054710191 0.0048938338 0.015602455 -0.0010423942 -0.34759614 -0.93764377 0.017530471
0.065536901 0.0038157902 0.015928132 0.0047539361 -0.29957953 -0.95405948 0.020760106
0.07361652 0.0052011609 0.015468707 -0.0085754804 -0.4010343 -0.9160229 0.043161169
0.083710186 0.0039220783 0.01578974 -0.013433944 -0.30186364 -0.95325643 0.018371619
0.095301174 0.0041184388 0.015756669 -0.0093690325 -0.31584835 -0.94876337 0.019575017
0.10573248 0.0056050918 0.015207098 0.0092883278 -0.40337944 -0.91498572 0.029193951
0.11528359 0.0050311908 0.015370663 0.010668205 -0.35990557 -0.93292767 0.035836011
0.1252438 0.005066873 0.015324934 -0.0212382 -0.42026561 -0.90715253 0.035592467
0.13487154 0.0056666909 0.015116952 -0.0041880286 -0.47573695 -0.87957764 0.045400947
0.14420784 0.0051131179 0.01527948 -0.0040811705 -0.42932406 -0.90314126 0.038503911
0.15461344 0.0041874498 0.015563211 -0.029012503 -0.31444463 -0.94883239 0.020777361
0.16460323 0.0036298935 0.015698519 -0.0099838618 -0.2828052 -0.95912534 0.018533444
0.1753711 0.0030996413 0.015835712 0.0023302608 -0.29759607 -0.95468903 0.020543804
0.18572569 0.0039527328 0.015571117 -0.0074252831 -0.30010462 -0.95387739 0.017536486
0.19497953 0.0041306536 0.015466482 0.017493298 -0.33366102 -0.94253081 0.023621354
0.20523684 0.0047603138 0.01521835 -0.0020416321 -0.38582119 -0.92257136 0.027532807
0.21430209 0.0043703453 0.01531405 -0.013226452 -0.38216341 -0.92400008 0.027798029
0.22525316 0.0047491374 0.015142239 0.02383546 -0.35857144 -0.93319792 0.025599871
0.2350269 0.0041894168 0.015313991 -0.0053928546 -0.3274633 -0.94484848 0.017163772
0.24516016 0.005336863 0.014887917 0.012097497 -0.48231381 -0.87591493 0.05320207
0.25478843 0.0047298055 0.015065181 -0.043944959 -0.45275682 -0.89055049 0.051865473
0.26504761 0.00545171 0.014786964 -0.017203031 -0.51774961 -0.85535914 0.058074471
0.27556765 0.004649308 0.015028358 -0.0048478721 -0.42502877 -0.90516686 0.044676367
0.28536585 0.0043903305 0.015094357 0.00077022403 -0.41532624 -0.90967214 0.040736578
0.29458275 0.0049455729 0.01487101 -0.0058142794 -0.48074338 -0.87684208 0.051814731
0.3062894 0.0045308308 0.0149786 0.014958986 -0.50375825 -0.86371523 0.053864937
0.31601492 0.0058095502 0.014513886 0.035291556 -0.48644847 -0.87299615 0.058825638
0.32495102 0.0055320193 0.014584217 -0.033036221 -0.48544422 -0.87364322 0.051672131
0.33429781 0.0049736225 0.014747115 -0.0083880601 -0.47475094 -0.88008016 0.055535436
0.34373787 0.0063637402 0.014251524 -0.027042406 -0.56153756 -0.82700932 0.066291675
0.35596856 0.0045654969 0.014821858 0.022779588 -0.51178843 -0.85880947 0.052204195
0.3647083 0.0054105907 0.014514524 0.003077762 -0.45774382 -0.8890788 0.05546654
0.37627357 0.0048965877 0.014651144 0.0094363559 -0.48831612 -0.87261581 0.048759911
0.38567418 0.0044380408 0.014776146 0.012311042 -0.48032224 -0.87700564 0.052724492
0.39554009 0.005011857 0.014560172 -0.0086314976 -0.47640163 -0.87918538 0.054434117
0.40574771 0.0035723315 0.015006888 -0.0026240416 -0.43843514 -0.89875901 0.047872867
0.41371953 0.0055288952 0.014342394 0.0088324267 -0.53785998 -0.84298795 0.060152259
0.42520997 0.0052382802 0.01440121 -0.0014617512 -0.53295195 -0.8461442 0.049548827
0.43464455 0.0053396299 0.014344398 -0.002382199 -0.55931413 -0.82895237 0.065136097
0.44605413 0.0058723865 0.014135327 -0.0029857941 -0.54457337 -0.83870786 0.071362667
0.45517847 0.0044740951 0.014573594 0.0030821951 -0.48818907 -0.87273246 0.05336611
0.46619499 0.0053769527 0.014247147 -0.026019843 -0.53742784 -0.8429082 0.056924518
0.47459915 0.0045826584 0.014478819 -0.15182593 -0.51857603 -0.8414439 0.059077829
0.48482102 0.0047844681 0.014391726 -0.374524 -0.44845816 -0.81155223 0.076774709
0.49183556 0.0043256381 0.013370577 -0.59338564 -0.3685438 -0.71558988 0.078618519
-0.49276245 0.01483693 0.012158574 0.91796422 -0.10951805 -0.38124481 0.13444431
-0.4852699 0.014636839 0.013664194 0.66413581 -0.1060227 -0.74005592 0.13477483
-0.47642964 0.015192881 0.013677308 0.4301154 -0.058614563 -0.90086913 0.15853652
-0.46431139 0.015109484 0.01367731 0.14980066 -0.072709247 -0.9860391 0.07795798
-0.45560756 0.01511703 0.01367731 -0.0061326926 -0.0034921002 -0.99997503 0.064807363
-0.44442925 0.015021904 0.013677309 0.0074211503 -0.0027311351 -0.99996877 0.061474092
-0.4352026 0.013932258 0.013677308 -0.011859403 -0.095471472 -0.99536157 0.068416961
-0.42425463 0.015476965 0.013677308 0.053409986 0.1977285 0.97880065 0.091289505
-0.41523516 0.014723125 0.013677307 -0.035771228 -0.1947455 -0.9802013 0.081247628
-0.40544242 0.015297677 0.01367731 0.068771936 0.25221774 0.96522367 0.096908912
-0.39423412 0.013631366 0.013677308 -0.033926204 -0.23243596 -0.97201985 0.086394243
-0.38528609 0.01592054 0.013469451 0.15352723 0.42156634 0.89370644 0.12208813
-0.37471843 0.015182106 0.012552808 0.26234564 0.46957842 0.84301299 0.18194968
-0.36472553 0.015087137 0.011651683 0.21679585 0.40621135 0.88768911 0.21694423
-0.35474223 0.015325728 0.011615354 0.0842098 -0.34676826 -0.93416297 0.19511038
-0.34502697 0.015911631 0.012792533 0.11324433 -0.55163795 -0.82636023 0.15494603
-0.33550599 0.014951468 0.01381198 0.0039717159 -0.53029317 -0.84780496 0.10099652
-0.32488802 0.01462362 0.014008569 0.10524468 0.61367434 0.78251344 0.09235321
-0.31619209 0.01455559 0.013203997 0.066370741 0.68091482 0.7293489 0.08035329
-0.30538031 0.01450693 0.012456705 -0.0093222726 -0.7570641 -0.65327412 0.094655938
-0.2947405 0.014092276 0.01189427 -0.024703022 -0.70391941 -0.70985013 0.084867053
-0.28417677 0.012537464 0.01243549 -0.04401939 -0.63242054 -0.77337348 0.081040375
-0.27591673 0.012333958 0.011976182 0.11283195 0.63450593 0.76463795 0.066874176
-0.26450109 0.011421834 0.011755808 -0.039439131 -0.65950906 -0.75066131 0.072641358
-0.25441563 0.011214916 0.010839322 0.078252867 0.75445384 0.65167159 0.094632663
-0.24661803 0.010695815 0.010532564 0.1303317 0.79543149 0.59186351 0.093147889
-0.23990387 0.010260902 0.010254296 0.077308252 0.83940881 0.5379743 0.090744123
-0.13094813 0.010176469 0.01006348 0.032494497 -0.83504546 -0.54922056 0.10487204
-0.12057187 0.010075429 0.01053916 0.020551279 -0.7549625 -0.65544581 0.095630974
-0.11634918 0.0102713 0.010455 0.017256441 -0.77493525 -0.63180506 0.097134531
-0.1096978 0.010485923 0.010432485 0.053450592 -0.79013658 -0.61059582 0.091086626
-0.09522561 0.010304593 0.01114329 0.042264495 -0.69642943 -0.71637964 0.08489836
-0.083250023 0.010525334 0.011296924 0.085090362 -0.6816169 -0.72674483 0.083806716
-0.0770192 0.011072113 0.010870655 0.011242879 -0.68795824 -0.72566324 0.085940398
-0.067132205 0.01106089 0.011224231 -0.019107522 -0.68875641 -0.72474104 0.090390652
-0.054208245 0.010807232 0.011966493 0.0081268363 -0.63420099 -0.77312547 0.065338068
-0.041451521 0.011669288 0.011454771 0.05036122 -0.66662925 -0.74368614 0.059126392
-0.035528157 0.011776898 0.011538434 0.023920856 -0.65072608 -0.75893563 0.071844712
-0.022766009 0.011234145 0.012344289 0.073463626 -0.62917989 -0.77378017 0.067664832
-0.01434565 0.012525893 0.01147627 0.023187425 -0.67593151 -0.73659962 0.072586253
-0.0045218216 0.01271194 0.011605204 0.019950038 -0.66874909 -0.74322057 0.077358983
0.004441577 0.011740766 0.012682603 -0.051716711 -0.64626193 -0.76136124 0.080547594
0.013799093 0.012356613 0.01236809 -0.024323458 -0.64663488 -0.76241165 0.077240974
0.0253902 0.012519048 0.0124715 -0.018823039 -0.67528164 -0.73731971 0.080048025
0.035656374 0.013429549 0.012127455 0.018313373 -0.67051196 -0.74167264 0.087396093
0.045543224 0.013365936 0.012265394 0.042149179 -0.67861998 -0.73327917 0.080029204
0.0549963 0.013485575 0.012052204 0.025775807 -0.64123803 -0.76690894 0.081617743
0.065842733 0.014393905 0.011481871 0.009407239 -0.73621285 -0.67668468 0.084512912
0.073437653 0.01412627 0.0115462 -0.049247835 -0.66756582 -0.74292034 0.085119374
0.084803566 0.0126457 0.012521 0.035135463 -0.65221184 -0.75722212 0.080426648
0.095650107 0.012857824 0.012249239 -0.046070922 -0.59145933 -0.80501759 0.087040178
0.10616005 0.01359067 0.011805044 0.036240216 -0.68431509 -0.72828531 0.072284222
0.11435699 0.01365626 0.011628136 -0.054012403 -0.70350552 -0.70863444 0.07644622
0.12618665 0.012592215 0.012305576 0.0012752899 -0.66361517 -0.7480731 0.084593631
0.13523373 0.012638305 0.012239195 -0.028003562 -0.7035175 -0.71012604 0.07638289
0.1457531 0.012236317 0.012392413 0.050852749 -0.64205509 -0.76497018 0.084066458
0.15444063 0.012911536 0.011991397 -0.048966594 -0.65202242 -0.75661683 0.078165226
0.16458157 0.012316348 0.012346772 -0.0029134108 -0.64837265 -0.76131761 0.075569183
0.17349902 0.012590853 0.012059406 -0.012069468 -0.63609016 -0.77152026 0.077291615
0.18511923 0.012795654 0.011876361 0.017343953 -0.61760581 -0.78629649 0.078035451
0.19428433 0.012265341 0.012274519 0.010214927 -0.62608564 -0.7796874 0.078206256
0.20423526 0.013198056 0.011556504 -0.027648771 -0.57238746 -0.81951702 0.077214316
0.21440454 0.013737897 0.011043036 -0.012289153 -0.64605618 -0.76319087 0.07578437
0.22627616 0.012551918 0.011873779 0.027753649 -0.60737085 -0.79393351 0.069292173
0.23603623 0.012374056 0.011895943 0.035122123 -0.59936851 -0.79970241 0.070565835
0.24455091 0.012544455 0.011785446 -0.023784621 -0.61648107 -0.78701037 0.076288804
0.25324667 0.012322236 0.011921289 -0.065322548 -0.6324802 -0.77181721 0.071478389
0.26437446 0.01297396 0.011370538 0.0014722097 -0.70135844 -0.71280718 0.098628789
0.27309456 0.012110963 0.011948925 -0.042319365 -0.70077568 -0.71212542 0.095799327
0.28519672 0.01236418 0.01169342 0.042781554 -0.70051295 -0.71235621 0.076444931
0.29567319 0.011112005 0.012606387 -0.060990419 0.62686342 0.77673841 0.075850286
0.30526051 0.012068716 0.011816618 0.019469876 -0.6878289 -0.72561169 0.1025142
0.31468287 0.012397177 0.011509066 -0.025473995 -0.63271546 -0.7739653 0.068601497
0.32439271 0.011611555 0.012050867 -0.0067493403 -0.63989556 -0.76843226 0.071787402
0.33443737 0.011862723 0.011786951 -0.062463239 -0.63875896 -0.76686716 0.070649572
0.3445318 0.012084765 0.011570693 -0.0060138474 -0.66724378 -0.74481517 0.092256613
0.35427213 0.012364729 0.011299811 -0.021184726 -0.66705287 -0.74470913 0.10056646
0.36677623 0.012028504 0.011484406 0.021165367 -0.66272342 -0.74856508 0.076030903
0.37561926 0.011847756 0.011580111 -0.012451451 -0.65561241 -0.75499493 0.096785285
0.38546014 0.011322138 0.011910041 0.038565949 -0.65067798 -0.7583738 0.093703531
0.39475811 0.012259392 0.011168682 -0.036704171 -0.66019422 -0.75019759 0.097577922
0.4050788 0.011774344 0.011462239 -0.027496574 -0.65122801 -0.75838375 0.094360128
0.41436544 0.012084289 0.011199531 -0.028698634 -0.64754331 -0.76148814 0.088522688
0.42759806 0.012041383 0.011169484 0.016459031 -0.6926707 -0.72106612 0.085532472
0.43704715 0.011091698 0.011793124 0.0089447033 -0.67078155 -0.74160111 0.094271868
0.44597685 0.011984175 0.011130059 0.0089103505 -0.71643454 -0.69759738 0.1059893
0.45499364 0.011817536 0.01120319 0.0068265423 -0.67578959 -0.73706299 0.092371538
0.46509162 0.011463897 0.011409733 -0.037070706 0.67435831 0.73747307 0.085526243
0.47407582 0.01210777 0.010920316 -0.16669756 -0.66687888 -0.72628134 0.091741242
0.4841527 0.012855525 0.010353414 -0.42343611 -0.65297037 -0.62795824 0.14290835
0.49145874 0.011472371 0.011122216 -0.62675029 -0.54962015 -0.55236024 0.12073141
-0.49171954 0.025237318 0.011312913 0.91522157 -0.19815569 -0.35086158 0.11652778
-0.48567578 0.024692252 0.013316645 0.86222005 -0.13354953 -0.4886114 0.1186913
-0.47608986 0.025182135 0.01367731 0.31470928 -0.076347284 -0.94611269 0.12202699
-0.46593344 0.024176857 0.01367731 0.1883415 -0.13079634 -0.97335494 0.099575058
-0.45459363 0.024267789 0.013677309 0.040712699 0.043237798 0.99823493 0.071619049
-0.44534889 0.025104757 0.013677306 0.12585837 0.18521047 0.97460598 0.091385983
-0.43469042 0.024105338 0.013677309 0.060555555 0.21728981 0.97422695 0.089522325
-0.42471954 0.023894537 0.013677309 0.14995646 0.31048596 0.93867546 0.098123282
-0.4151198 0.02399148 0.01367731 0.10021639 0.3555218 0.92927986 0.11478063
-0.40476665 0.024993123 0.013677308 0.11690509 0.48375553 0.86736029 0.11392284
-0.39452755 0.026001573 0.013573458 -0.068972111 -0.67311639 -0.73631322 0.11396386
-0.38428068 0.024556078 0.013165202 0.10710251 0.52867842 0.84203809 0.10863482
-0.37489352 0.025170073 0.012175727 0.23952073 0.64999175 0.72120768 0.15000446
-0.36513022 0.024794467 0.011397925 0.27947086 0.81475562 0.50800526 0.17025371
-0.35498959 0.024068385 0.01137703 0.10035565 0.65427524 0.74956834 0.17874528
-0.34479311 0.02357877 0.011904129 -0.04093897 -0.78550369 -0.61750138 0.15789121
-0.33444589 0.022449167 0.011217671 -0.013578455 -0.73956919 -0.67294359 0.11400829
-0.32640499 0.020908231 0.010772099 0.080398917 0.70968956 0.69991195 0.10830001
-0.49102774 0.033903155 0.01036917 0.91213423 -0.26622427 -0.31166604 0.092265666
-0.48640862 0.035456665 0.012481803 0.88616568 -0.28781983 -0.36313912 0.097634114
-0.47501728 0.035622455 0.013677307 0.48443937 -0.19878034 -0.85194188 0.13704546
-0.46557361 0.0346357 0.013677307 0.20318392 -0.059248168 -0.97734636 0.093223311
-0.45348442 0.035304379 0.013677308 0.075886272 0.1456266 0.98642498 0.093979627
-0.44512066 0.035774935 0.013677309 0.17777796 0.20256443 0.96299666 0.10533136
-0.43470624 0.035291102 0.013677308 0.2354618 0.27186224 0.93308556 0.12593754
-0.4254075 0.034831788 0.013560455 0.2916072 0.49354687 0.81937581 0.13775496
-0.41624013 0.033881582 0.013263904 0.28054887 0.58579594 0.76035219 0.13585168
-0.40517345 0.033311732 0.012847387 0.17953603 0.64670467 0.74130952 0.13146706
-0.39598039 0.032500498 0.012087995 0.10489625 0.84456694 0.52507472 0.12691651
-0.38734582 0.03129568 0.011829419 0.16289532 0.7773748 0.60758001 0.11830904
-0.37847185 0.030062817 0.010463945 0.26346785 0.83564103 0.48196343 0.11388303
-0.4838261 0.044095069 0.012295167 0.82861578 -0.30281892 -0.47084665 0.10163147
-0.47566038 0.045343425 0.013669329 0.58957511 -0.3292861 -0.73754442 0.12044981
-0.46526399 0.044539474 0.013677309 0.17594095 -0.24290062 -0.95396227 0.11339555
-0.45475441 0.045587461 0.01367731 -0.030773697 -0.2297873 -0.97275418 0.08746843
-0.4448339 0.044669729 0.013677309 0.29503512 0.25728729 0.92019427 0.12184785
-0.43514788 0.04434878 0.013677309 0.5263235 0.41794473 0.74047667 0.13887247
-0.42633712 0.043300707 0.012695408 0.48960721 0.57153511 0.6585077 0.14002502
-0.48255882 0.053099114 0.010962397 0.83031934 -0.38145927 -0.4062742 0.094236612
-0.47463402 0.054475319 0.013421728 0.60688674 -0.35743925 -0.70987719 0.1210262
-0.46590745 0.054915052 0.01367731 0.20092207 -0.092996135 -0.97518313 0.13919991
-0.4540697 0.054278992 0.013677306 -0.019410321 -0.1122636 -0.99348879 0.10734554
-0.44544885 0.055653214 0.01367731 0.15870793 0.16089122 0.97412831 0.13942087
-0.43442953 0.054414626 0.013318172 0.63885295 0.29801726 0.70926207 0.17251872
-0.42845115 0.054195754 0.010784649 0.75658947 0.38796803 0.52635849 0.17161311
-0.47448191 0.064312905 0.01258643 0.763511 -0.38705766 -0.51694995 0.13329202
-0.46495157 0.064690195 0.013677309 0.28394943 -0.1493057 -0.94714338 0.15553741
-0.45446131 0.064929999 0.01367731 -0.021207295 -0.064212404 -0.99771082 0.12796338
-0.44534248 0.064383067 0.01367731 0.12364357 0.075371474 0.98946017 0.14090547
-0.43515211 0.064628363 0.011762262 0.68297702 0.10009682 0.72354901 0.1839209
-0.47196326 0.075674132 0.011642346 0.70637077 -0.45951104 -0.53841424 0.15208358
-0.46526325 0.075819395 0.01349105 0.44175419 -0.22542061 -0.86835402 0.18575433
-0.45396721 0.076529659 0.01367731 0.084882766 -0.032222588 -0.99586976 0.17071043
-0.44560838 0.075152434 0.01367731 0.049520098 -0.045389399 0.99774122 0.14607839
-0.43442154 0.074962921 0.012412935 0.28358248 -0.12374049 0.95093077 0.20709991
-0.42878163 0.077259131 0.01043232 0.84760916 -0.25978288 0.46267861 0.18035738
-0.4716593 0.081211947 0.010516099 0.80459273 -0.47473872 -0.35672647 0.13298039
-0.46508658 0.084535874 0.012337786 0.76623338 -0.4600676 -0.44858012 0.20357329
-0.45483705 0.08492136 0.013677309 0.21986762 -0.10675608 -0.96967077 0.18518345
-0.44546536 0.084929861 0.013677307 0.066243872 -0.13074763 0.98920012 0.15608698
-0.43329188 0.085111909 0.013524229 0.34867987 -0.29822212 0.88853019 0.17595848
-0.4268378 0.086250052 0.011647327 0.53559101 -0.34138259 0.77239901 0.17054504
-0.46073493 0.092240527 0.010894394 0.71221256 -0.56987047 -0.40987912 0.15694106
-0.45399189 0.095363155 0.012373101 0.46749428 -0.58972883 -0.65853554 0.18018064
-0.44511965 0.094949119 0.013677308 0.22458456 -0.12291865 -0.96667105 0.1997755
-0.4347561 0.094054766 0.013677306 0.13359454 -0.10986529 0.98492748 0.19599544
-0.4251748 0.094595529 0.012488665 0.53110486 -0.3898252 0.75230581 0.17527711
-0.41968012 0.096026942 0.010173051 0.72293043 -0.38095254 0.57640857 0.15821417
-0.4514457 0.1016159 0.010814116 0.55009919 -0.62005192 -0.55939835 0.15256952
-0.44381434 0.1057696 0.012385996 0.49453986 -0.62397444 -0.60505056 0.17534234
-0.43464783 0.10576571 0.01367731 0.34319532 -0.38899654 -0.85492611 0.198672
-0.42533973 0.10509447 0.013628985 0.3885335 -0.33675298 0.85769409 0.20465618
-0.41474348 0.10591274 0.01180217 0.67154729 -0.61749613 0.40953988 0.1821651
-0.40917194 0.10912414 0.010385768 0.71630174 -0.54672033 0.43359965 0.14555956
-0.44038361 0.11242529 0.010966673 0.51324701 -0.58841324 -0.62477785 0.16824931
-0.43417901 0.11488795 0.01234486 0.56080174 -0.6351459 -0.53112239 0.17597492
-0.42378131 0.11599407 0.013677308 0.63480097 -0.71636492 -0.28956681 0.1807265
-0.41596946 0.11531628 0.013624914 0.63993466 -0.71642083 0.27789328 0.17331931
-0.40587091 0.11635613 0.011886574 0.74497426 -0.62774509 0.22571996 0.14223339
