# .PCD v0.7 - Point Cloud Data file format
VERSION 0.7
FIELDS x y z normal_x normal_y normal_z curvature
SIZE 4 4 4 4 4 4 4
TYPE F F F F F F F
COUNT 1 1 1 1 1 1 1
WIDTH 573
HEIGHT 1
VIEWPOINT 0 0 0 1 0 0 0
POINTS 573
DATA ascii
0.059463814 -0.062720448 0.0026446895 -0.99791759 -0.027172659 0.058498118 0.016304005
-0.065151319 -0.055188872 0.0051016561 0.99905807 -0.028071763 -0.033088975 0.011336168
0.058855046 -0.052466437 0.0069467062 -0.99652022 -0.016072195 -0.081787452 0.01634948
-0.064921752 -0.043626219 0.0055628489 0.99953508 -0.015145664 -0.026462043 0.017509913
0.059245646 -0.046080261 0.0035424072 -0.99953038 0.015243531 -0.026583202 0.020914419
-0.064688876 -0.03483234 0.0056198547 0.99821669 -0.020640519 -0.056012049 0.015336727
0.058900721 -0.034678191 0.004189617 -0.99954313 -0.021128442 -0.021611651 0.019640215
-0.064686544 -0.022502044 0.004268954 0.99989754 0.0076923259 -0.012071912 0.014022611
0.058723919 -0.025094148 0.0038928369 -0.99867994 -0.023372374 -0.045740053 0.020705203
-0.064514466 -0.014672357 0.0052307043 0.99853563 -0.021287909 -0.049732823 0.011131942
0.058356881 -0.014139085 0.004777086 -0.99831551 -0.00018173576 -0.058018655 0.018732576
-0.064287134 -0.0034390341 0.00622406 0.99926847 -0.0087386733 -0.037231971 0.010237676
0.058350831 -0.0051101753 0.0053943177 -0.99952322 -0.0055330391 -0.030376259 0.01777705
-0.064238273 0.0045757266 0.0055765486 0.99955976 -0.0021991881 -0.029587809 0.010446451
0.058039047 0.0048823012 0.0053034024 -0.99753433 -0.040860035 -0.05705978 0.017616939
-0.064144269 0.015500973 0.0063909069 0.99857521 -0.014345082 -0.051397864 0.014321432
0.058126159 0.014033886 0.0039035748 -0.99906784 0.0052109309 -0.042852607 0.017648833
-0.063936219 0.026349524 0.0043823384 0.99991649 -0.0050461055 0.011896671 0.012871772
0.057731692 0.024364984 0.005171889 -0.99842405 -0.040658049 -0.038682882 0.016568966
-0.063787781 0.034328036 0.0064275344 0.99887806 -0.017888501 -0.043848258 0.009909641
0.057678796 0.035980057 0.0052762772 -0.99928361 0.0040526441 -0.037625875 0.016358191
-0.063883096 0.04646406 0.0032111753 0.99880266 0.0099312961 0.047902472 0.015135913
0.057582404 0.043179121 0.0048738942 -0.99909258 -0.012086288 -0.040840082 0.015260136
-0.063481472 0.054100528 0.0057728011 0.99983388 -0.0028113974 -0.018009491 0.011650289
0.05720209 0.055142496 0.0068352544 -0.99603063 -0.016725626 -0.087425575 0.014506873
-0.063485228 0.066263795 0.0040028407 0.99960303 -0.021864302 0.017768547 0.014936974
0.057385694 0.064127028 0.0031520715 -0.99848896 -0.037180088 -0.040464208 0.012655627
-0.063467771 0.073671423 0.0043525714 0.99900162 -0.02130305 -0.039266672 0.011827524
0.057216443 0.075012617 0.0040211645 -0.99812078 0.0071870857 -0.060854223 0.014303222
-0.063226394 0.084429115 0.003060397 0.99969304 0.0062408997 0.023978025 0.014577881
0.056858856 0.084656544 0.0061684125 -0.9958055 -0.02502119 -0.088007838 0.012606568
-0.063060798 0.096608631 0.0048778178 0.9991318 -0.0023803259 -0.041592769 0.012724219
0.056599885 0.094067588 0.0067886207 -0.99195337 -0.0025235496 -0.12657855 0.014286278
-0.062964372 0.10501491 0.004815354 0.99967021 -0.021317881 0.014320807 0.015229062
0.05656001 0.10395334 0.0044591622 -0.99521637 -0.014729769 -0.096578397 0.010607472
-0.062746115 0.11618821 0.0055462914 0.99991077 -0.013141966 -0.0023911539 0.012795454
0.056312043 0.11502813 0.0056398152 -0.99580407 -0.013280966 -0.090542063 0.010004777
-0.062624305 0.12537816 0.0054716449 0.99904311 -0.011014508 -0.042326398 0.013063681
0.056377873 0.12524794 0.0037334785 -0.99904257 -4.3240016e-05 -0.043749791 0.014936836
-0.062638864 0.13635556 0.0026161373 0.99710083 0.011976177 0.07514362 0.012660822
0.056113522 0.1338671 0.0048300955 -0.99660921 -0.032450259 -0.075611182 0.010802737
-0.062268339 0.14700779 0.0076949173 0.99492228 -0.048165988 -0.08837302 0.026592249
0.056046475 0.14372629 0.0048847659 -0.99813086 -0.03147053 -0.052385211 0.011605305
-0.062235218 0.15731758 0.0045376453 0.99389267 0.031891339 0.10564205 0.15760504
0.055824425 0.15417457 0.0044206325 -0.99900818 -0.038403895 -0.022536885 0.13236615
-0.062091928 0.16303959 0.005115448 0.94349837 0.32804653 -0.046865363 0.2416214
-0.02555608 0.16959679 0.00049213535 -0.060157131 -0.99817568 0.0051403954 0.0020259793
-0.014704843 0.16942553 0.0054870378 -0.049436428 -0.99845564 0.025346428 0.0015108263
-0.0054729916 0.16872776 0.0040600454 -0.031745061 -0.99894607 0.033151854 0.0013407178
0.0049268669 0.16815066 0.0045478507 0.0096778329 -0.99945861 0.031445693 0.0015194748
0.013351354 0.16866757 0.005967807 0.04513311 -0.99819565 0.039604332 0.0012638287
0.025143577 0.16957439 0.0027348415 0.083475024 -0.99638581 0.015718617 0.0016709659
0.055685978 0.16550702 0.0040022475 0.71897858 -0.68620092 -0.11044475 0.22835143
-0.084140442 0.17922008 0.003903219 -0.13683645 -0.99052566 0.011608632 0.090064742
-0.073887832 0.1770557 0.0062583578 -0.39029726 -0.91498786 0.10230011 0.18652706
-0.064410977 0.17578256 0.0040084501 -0.47789073 -0.87196171 0.10631664 0.21382199
-0.054988571 0.17242467 0.0040066014 -0.4732731 -0.87418026 -0.10872688 0.2376256
-0.045851156 0.17117131 0.0040457863 -0.1341413 -0.98910987 0.060563222 0.20202084
-0.035424169 0.17055596 0.0042104046 0.043102447 -0.99855787 0.032005392 0.027649015
-0.027619028 0.17031451 0.0065872991 -0.060322404 -0.9962793 0.061553609 0.0013256737
-0.017161069 0.17001125 0.009979778 -0.051949587 -0.99601227 0.072531231 0.0011935178
0.027209565 0.17033917 0.0083980672 0.026254863 -0.99867761 0.044199947 0.0093794437
0.034276731 0.17078811 0.0054886285 0.015440339 -0.99913353 0.038648758 0.10224215
0.044704128 0.17184384 0.0052403412 0.19019124 -0.98174512 0.0019253306 0.19496655
0.055057667 0.1737285 0.0054896367 0.41533229 -0.8986119 0.14140648 0.2191623
0.065838702 0.1737598 0.0020929493 0.32281446 -0.94046092 0.10641458 0.16479547
0.074832633 0.17654981 0.0056192069 0.17267714 -0.98411429 0.041251175 0.11887466
0.084637441 0.17926221 0.0049789655 0.27001333 -0.96127796 0.055112854 0.0012452485
-0.11463848 0.18823025 0.0051034749 -0.35503915 -0.93427074 0.032944709 0.0014847344
-0.1038144 0.1840362 0.0048528328 -0.30494085 -0.95182228 0.032332718 0.0016315248
-0.09482035 0.18187426 0.0055582915 -0.26589468 -0.96303314 0.04321051 0.0017135902
-0.088688873 0.18016948 0.0027472465 -0.15068072 -0.9884342 0.017119972 0.017124129
-0.061984535 0.18537289 0.0041390965 0.99054515 0.12923375 0.04603086 0.25457886
0.055086631 0.18599302 0.0072608702 -0.98511559 -0.024686679 -0.17011125 0.19941559
0.088637419 0.18027887 0.0037936121 0.27228099 -0.96204817 0.018065874 0.0019614776
0.094570361 0.1820567 0.0048101945 0.27045622 -0.96219939 0.032026321 0.0015268197
0.10306942 0.18443923 0.0045774444 0.27733189 -0.9599148 0.040627543 0.0015639527
0.115699 0.18802337 0.004681197 0.33716977 -0.94117647 0.022435166 0.00241161
0.12030613 0.18938798 0.0045867558 0.36903036 -0.92928797 0.015506847 0.0024728638
-0.14193717 0.19991545 0.00035373209 -0.4347702 -0.90054101 -0.00084132678 0.0016939363
-0.13611509 0.1978215 0.0054606455 -0.41372517 -0.90894461 0.051489174 0.0010045976
-0.12557708 0.19286011 0.0026613455 -0.40027729 -0.91638732 0.0035072197 0.0017901867
-0.11830979 0.19010609 0.0075934948 -0.38244277 -0.9211235 0.072588481 0.0016776588
-0.061761405 0.19420549 0.0044619441 0.97423416 -0.22490124 -0.016944569 0.13354008
0.055050436 0.19587025 0.006711571 -0.9807719 -0.1825289 -0.069062866 0.08482448
0.1271508 0.1930225 0.0059107491 0.4158628 -0.90832525 0.044758942 0.0021442557
0.13598129 0.19740768 0.0044950186 0.45094615 -0.89181459 0.036253281 0.0011945633
-0.15696786 0.20802601 0.0065308958 -0.51641428 -0.85498363 0.048158884 0.0020617803
-0.14647797 0.20236543 0.0047693294 -0.46559763 -0.8841399 0.038929969 0.0017275979
-0.061783947 0.20237283 0.0049006767 0.99361849 -0.11278 0.0017484311 0.030698162
0.055069134 0.20428871 0.0050232802 -0.99886543 -0.017469928 -0.044301804 0.0100237
0.14503016 0.20213094 0.0054053627 0.46399409 -0.88444835 0.049605407 0.0015141882
0.15557668 0.2073843 0.0038793869 0.49803859 -0.86684436 0.023204755 0.0020439404
-0.17090344 0.21856527 0.0064704032 -0.59416997 -0.80234301 0.056637026 0.0023112739
-0.16504447 0.21406072 0.0057400833 -0.57798165 -0.81509393 0.039485659 0.0021062391
-0.061639313 0.21557736 0.0057230736 0.99870485 0.00074520835 -0.050871983 0.0097689768
0.054819945 0.2136381 0.005070982 -0.99932635 -0.015040427 -0.033476654 0.0098863328
0.16358477 0.21199057 0.007624465 0.5574984 -0.82677025 0.075142965 0.0026345225
0.17281345 0.2188026 0.0040360782 0.61458409 -0.78769338 0.042725902 0.0023525688
-0.18415868 0.22838496 0.0043050144 -0.66710043 -0.74451202 0.026055947 0.0026161734
-0.17547961 0.22202696 0.0064591672 -0.6189149 -0.78472322 0.033967845 0.0017530328
-0.06136952 0.22424515 0.0041413978 0.99993986 0.0055728815 -0.0094444817 0.012911063
0.054768119 0.22624432 0.0038457566 -0.99999082 -0.0015785843 -0.0039749984 0.011804447
0.17706591 0.22241084 0.0030518807 0.64161056 -0.76661134 0.025356852 0.0018217438
0.18320885 0.22800432 0.0055492143 0.66155505 -0.74738318 0.061346132 0.0020101648
-0.19304968 0.23606506 0.0053157411 -0.72215241 -0.68944776 0.05619397 0.0041112178
-0.18839046 0.23163518 0.0047986796 -0.68544286 -0.72760022 0.027674897 0.0033148683
-0.061128367 0.23458004 0.0073764855 0.99495637 0.0087501705 -0.099926062 0.011486986
0.054621935 0.23398648 0.0052969567 -0.99966067 -0.019840848 -0.016881065 0.0097844293
0.18659163 0.2310123 0.0061820759 0.67556131 -0.73521805 0.055418927 0.0019765745
0.1931228 0.23661043 0.0052504237 0.72163761 -0.69125229 0.03754269 0.003836944
-0.20111151 0.24696989 0.0053192507 0.79005718 0.61043453 -0.056385517 0.0024864262
-0.19717029 0.24155946 0.0051888889 -0.76238912 -0.6461336 0.03569534 0.0034194505
-0.061158299 0.24634655 0.0043723113 0.99941397 0.0025032258 -0.034139883 0.015596138
0.054244865 0.24649681 0.0058008409 -0.99918747 -0.0080146873 -0.039497528 0.010277253
0.19800591 0.24088882 0.0055088839 0.74002212 -0.67124754 0.042354081 0.0042118016
0.2021274 0.24618988 0.0058660652 -0.78747821 0.61252779 -0.068467475 0.0041870587
-0.21016216 0.25969589 0.0087165348 0.85907 0.50487888 -0.084237777 0.0038945314
-0.20749685 0.25555003 0.0036214045 0.83932972 0.54268849 -0.031854481 0.0028525232
-0.061032064 0.2536296 0.0038678688 0.9985168 -0.0026604817 0.054379594 0.011708049
0.054309752 0.25394067 0.0047470075 -0.999259 -0.032302342 -0.020930039 0.0088650072
0.20617662 0.25273997 0.0040923115 -0.82179093 0.5680235 -0.044821478 0.0032412594
0.21001148 0.25882316 0.001177465 -0.8587054 0.51229089 -0.013528374 0.0031313971
-0.21329822 0.26369718 0.0056961309 0.88395494 0.46508369 -0.048176128 0.0045032762
-0.060847349 0.265688 0.0045329658 0.99936628 -0.01927196 -0.029925916 0.015766449
0.054037783 0.26496622 0.0057122633 -0.99883014 -0.015892891 -0.045669232 0.010838526
0.21463577 0.26657873 0.0019818868 -0.88500106 0.46521211 -0.018733336 0.0039964984
-0.21849768 0.27554065 0.0014936785 0.92846656 0.37133652 -0.0076875975 0.0043847556
-0.060704086 0.27451512 0.0048264763 0.99678099 -0.025735902 -0.075929686 0.011459606
0.054081183 0.2755802 0.0036099919 -0.99955666 -0.028621243 0.0081987083 0.010521493
0.2186358 0.27322653 0.0020529842 -0.91749358 0.39734825 -0.017884756 0.0055992915
0.22074239 0.2773383 0.0044493903 -0.93763059 0.34520194 -0.041043907 0.0064343167
-0.22099116 0.28573039 0.006288439 0.96834219 0.23820139 -0.074655809 0.0032979986
-0.060673397 0.28315783 0.0061310404 0.99719614 -0.015849935 -0.073134437 0.010214377
0.053677615 0.28640893 0.0041177692 -0.99906766 -0.019945936 -0.038288921 0.00881775
0.22149339 0.28214994 0.0064296667 -0.95258838 0.29570004 -0.071672797 0.0064803222
-0.22352815 0.29562429 0.0061762836 0.98744726 0.14880902 -0.052951828 0.0038819753
-0.060568631 0.29719815 0.0021334102 0.99854749 0.0039650826 0.053732995 0.013033372
0.053546079 0.29576072 0.005743138 -0.99892914 0.0065009715 -0.045807481 0.009194348
0.22355248 0.2954663 0.0050017275 -0.99265301 0.11543655 -0.036253043 0.0022402687
-0.22547881 0.3072885 0.0065154564 0.99623597 0.040319115 -0.076734714 0.0052469973
-0.060402595 0.30478153 0.0057402588 0.99765193 0.0044501307 -0.068343356 0.015056117
-0.059936225 0.30664498 0.0096949115 0.98411745 0.0086668143 -0.17730723 0.0122397
0.053556956 0.30543357 0.0038694665 -0.99985701 -0.0066590295 -0.015542905 0.0075298622
0.22501312 0.3057484 0.0032849615 -0.99905747 0.031460527 -0.029905619 0.0024859265
-0.22553807 0.31496364 0.006231158 0.99712163 -0.028801 -0.070135303 0.0054693995
-0.060221661 0.31475243 0.0067287507 0.99388361 0.0082571423 -0.11012357 0.01188203
-0.059851568 0.31624803 0.0093926964 0.98746258 0.0068607423 -0.15770395 0.012098277
0.053358659 0.31709588 0.0048085731 -0.99987608 6.8267393e-05 -0.015741875 0.0067167105
0.22479852 0.31570682 0.0049963705 -0.99751365 -0.044745471 -0.054445568 0.0020560215
-0.22380169 0.32421926 0.0051302067 0.98900813 -0.14312015 -0.037142076 0.0041266507
-0.060407277 0.32605639 0.0042061475 0.99944055 -0.029689195 -0.015397999 0.010785266
-0.059683271 0.32860088 0.009455068 0.99478579 -0.015489835 -0.10080361 0.01214189
0.05314862 0.32112291 0.0049879849 -0.99988121 -0.0062463633 -0.014091445 0.0067837113
0.22355202 0.32535669 0.0038057724 -0.99022746 -0.13419637 -0.037959903 0.0035370074
-0.22182693 0.33225167 0.0038412723 0.97701311 -0.20837 -0.045026049 0.0028295715
-0.060128372 0.33449706 0.0040349462 0.99976134 -0.016639791 0.014159042 0.014093013
-0.059803914 0.33629331 0.0058295829 0.99635357 -0.031897202 -0.079134107 0.010337341
0.053241167 0.33301342 0.0048189256 -0.999789 -0.016589591 -0.012116065 0.0065280804
0.22222778 0.33386022 0.0054301368 -0.97435266 -0.21964082 -0.048937101 0.0045249416
-0.21782197 0.34716141 0.0056005488 0.92357469 -0.37775105 -0.065680556 0.0045847283
-0.060181275 0.34184065 0.0043690326 0.99927515 -0.032892592 -0.019161079 0.015355798
0.05284965 0.34424195 0.004752283 -0.99946725 -0.021351114 -0.024686297 0.011843677
0.21809608 0.34734523 0.0092655392 -0.91655892 -0.3874644 -0.098949306 0.0041719992
0.22119419 0.3410593 0.0030599528 -0.94472134 -0.3262606 -0.032490436 0.0053126998
-0.21391474 0.35618484 0.0046630283 0.8865484 -0.4609687 -0.039239287 0.0051610279
-0.059696794 0.35525084 0.001879597 0.99702305 -0.024725392 0.073032089 0.011982887
0.052722912 0.35543346 0.0045383219 -0.99968731 -0.019790871 -0.015283804 0.0065674279
0.21260741 0.35725239 0.0049321232 -0.878721 -0.47605586 -0.034932952 0.0032311906
-0.21023698 0.3608667 0.007925963 0.84652317 -0.52640867 -0.079325542 0.0038465094
-0.20716068 0.36570793 0.0037897085 0.8410849 -0.54016048 -0.028333215 0.0035512173
-0.059738941 0.36414063 0.0046559973 0.99909604 -0.042313583 -0.0040709656 0.011484317
0.05267996 0.36434931 0.0041140192 -0.99979013 0.011160248 -0.017184742 0.0063094734
0.20838544 0.36426932 0.0051963115 -0.84980184 -0.52234352 -0.070668519 0.0030925679
0.21010789 0.36135101 0.0055110711 -0.85978925 -0.50575322 -0.070541292 0.0024391219
-0.20245665 0.37197974 0.0053730821 0.79796016 -0.59899384 -0.066827379 0.0025200997
-0.059567079 0.37509778 0.0044020009 0.99995238 -0.0077011166 0.0059999316 0.015185495
0.052612383 0.37372601 0.0042727548 -0.99968785 -0.0023982271 -0.02487001 0.0068016937
0.19904925 0.37927398 0.0040372889 -0.75264126 -0.65795881 -0.02492504 0.0038785962
0.20213595 0.37477583 0.0046267309 -0.77670336 -0.62889779 -0.034920435 0.0041998592
-0.19348826 0.38450131 0.0040133297 0.72675925 -0.68593472 -0.036257122 0.0039193309
-0.18799464 0.38939992 0.006727498 0.67014426 -0.73897815 -0.069411442 0.003342083
-0.059362005 0.38373503 0.0045528836 0.99978817 -0.015045313 -0.01404397 0.012154058
0.052091815 0.38652897 0.0069922968 -0.99661052 -0.012315041 -0.081337489 0.012626885
0.18801951 0.38846269 0.0075951312 -0.67536604 -0.73524547 -0.057401471 0.0020882674
0.1927827 0.38455364 0.0049978509 -0.70981771 -0.7037034 -0.030987956 0.0028052335
-0.18379287 0.39287204 0.0042256601 0.6573298 -0.7525087 -0.04059837 0.0033169305
-0.17782782 0.39709437 0.00691535 0.62079167 -0.78032964 -0.075520419 0.0023535076
-0.059037749 0.39716151 0.0063504227 0.99976498 0.0044133011 -0.021225622 0.011428656
0.052094981 0.3947829 0.0052811173 -0.99942726 -0.017585794 -0.028909354 0.0069452799
0.17729314 0.39814639 0.0038367426 -0.63580853 -0.77172053 -0.013959309 0.001753847
0.18405953 0.39226237 0.0051302067 -0.66320753 -0.74750096 -0.03739088 0.0013778119
-0.17248137 0.40170455 0.0037066161 0.60148215 -0.79877234 -0.013487581 0.0018826266
-0.1666235 0.40589976 0.0035872452 0.58139867 -0.81304181 -0.030637739 0.0018260439
-0.059034027 0.40531543 0.0047101555 0.9993065 0.0086905565 0.036206193 0.011302672
0.051876567 0.40263325 0.0068237227 -0.99668097 -0.021754034 -0.07844656 0.010257192
0.16587959 0.40782338 0.0056440453 -0.56332415 -0.824404 -0.054989781 0.0026743829
0.17329802 0.40171289 0.0048654242 -0.62902945 -0.77642161 -0.038619865 0.0018035176
-0.15698458 0.41323853 0.0039080842 0.52979428 -0.84744489 -0.033988245 0.0021152322
-0.1451263 0.41907382 0.0067386865 0.45602608 -0.88776147 -0.062608466 0.0018922394
-0.058979187 0.41278023 0.0027967824 0.99878353 -0.020997582 0.044616017 0.011704912
0.051848508 0.41663331 0.0045490856 -0.99971831 -0.023111602 -0.0054063802 0.0066121737
0.14638914 0.41839278 0.0045859148 -0.46138152 -0.88490111 -0.063852958 0.0017251635
0.15555023 0.41340673 0.005800229 -0.50468069 -0.86156952 -0.054731056 0.0023858917
0.16154526 0.41072771 0.0039078658 -0.53436947 -0.84474194 -0.029334415 0.0025037043
-0.13639776 0.42316785 0.0061456696 0.42288578 -0.90480381 -0.049976923 0.001357723
-0.12468471 0.42836368 0.0070172679 0.39870349 -0.91448152 -0.068985678 0.0017543115
-0.058856733 0.42345956 0.0054366696 -0.97868162 -0.20402373 0.023591064 0.063443281
0.051549412 0.42610028 0.00038115331 -0.99799961 0.03238881 0.054293778 0.069874398
0.12511478 0.42928421 0.004851677 -0.39541456 -0.91732222 -0.04655312 0.0023957801
0.1350724 0.42426398 0.0025153032 -0.44054061 -0.8976149 -0.014539233 0.0018728893
0.14233427 0.42040005 0.0062441183 -0.45832461 -0.88586718 -0.071957707 0.0017256832
-0.12011099 0.43003571 0.0093101598 0.38550055 -0.91984057 -0.072681665 0.0017124692
-0.11431434 0.43313947 0.0051830579 0.36120746 -0.9316864 -0.038597073 0.0019450049
-0.10569575 0.4365896 0.0059885909 0.32061324 -0.9460988 -0.045872029 0.0022592871
-0.096038133 0.43901333 0.0060441769 0.26335058 -0.96320164 -0.05374964 0.0022976671
-0.058583688 0.43530434 0.0037325013 0.7266798 -0.68640858 0.027922453 0.24632332
0.051328227 0.43530378 0.0064597484 -0.96277547 -0.26696917 -0.042318258 0.24280532
0.094552264 0.4390291 0.0054326863 -0.26326889 -0.96387106 -0.040521458 0.0018663381
0.1045972 0.43623227 0.0056751841 -0.28312841 -0.95861524 -0.029917175 0.0017639772
0.11429184 0.43354335 0.0050768 -0.32769081 -0.94384181 -0.042206448 0.0023247702
0.12106585 0.43149483 0.0015579904 -0.37335104 -0.92739528 -0.023386497 0.002444315
-0.091271564 0.44041795 0.0046107238 0.24370942 -0.96942514 -0.028647834 0.0019016364
-0.084169142 0.44190529 0.0056675007 0.19870603 -0.97849989 -0.055261459 0.018993193
-0.074839272 0.44393298 0.0064297342 0.21666899 -0.97462052 -0.056297194 0.12820877
-0.065358825 0.44617674 0.005275134 0.47608089 -0.87762928 -0.055801492 0.17833924
-0.057073817 0.44773549 0.0054733478 0.70900071 -0.70259297 -0.060672369 0.21719411
0.039321989 0.44973189 0.0052259816 -0.13394026 -0.98692608 -0.089649178 0.21866255
0.048008516 0.44903374 0.0048562414 -0.96877629 -0.24516112 -0.036995098 0.22896507
0.053143419 0.44769606 0.0056385384 -0.74166846 -0.66900736 -0.04854878 0.24198514
0.061074834 0.4479287 0.0029196143 -0.50732803 -0.85649472 -0.095053382 0.21831718
0.075507179 0.44468719 0.0052364599 -0.18704684 -0.98137534 -0.04377041 0.030111926
0.08555112 0.44173232 0.0049082325 -0.26869908 -0.96287316 -0.026000619 0.0023019949
0.092050537 0.44004172 0.0025004933 -0.26511943 -0.96420509 -0.0044942359 0.0021284688
-0.058526296 0.45493928 0.0026320415 0.79158753 -0.61080724 0.01742693 0.21998084
-0.04179053 0.45046878 0.0042617102 -0.073658548 -0.99707448 0.020414533 0.15242545
-0.035025313 0.45063105 0.0048216619 -0.0033287662 -0.99980533 -0.019451758 0.073704921
-0.025679551 0.45127612 0.0042764107 0.059152678 -0.9980433 -0.020264238 0.0020926723
-0.012203261 0.45206475 0.003352514 0.043676019 -0.99896783 -0.012477336 0.0018511462
-0.0055614519 0.45252305 0.0051624239 0.032372288 -0.99873215 -0.038551215 0.0022067516
0.005468823 0.45328745 0.004616668 -0.0065372833 -0.9996624 -0.025145737 0.0019795883
0.015392403 0.45251855 0.0048915674 -0.051664907 -0.9981879 -0.030848062 0.0021078649
0.026336636 0.45143244 0.00346075 0.037038717 -0.99903089 -0.023778846 0.051378563
0.033357423 0.45073342 0.0038432688 -0.010420826 -0.9993667 -0.034022991 0.13952439
0.041109301 0.45002687 0.003233029 -0.25776812 -0.96318358 -0.07637424 0.25928715
0.051091693 0.45389864 0.0045564454 -0.89199048 -0.43928912 -0.10666771 0.25519544
-0.058293842 0.46750936 0.0033025269 0.99885368 0.046206489 0.012502708 0.15139218
0.050954394 0.46565264 0.0037187748 -0.99631417 0.064718254 0.056299787 0.11959969
-0.058046311 0.4750368 0.0055943439 0.99485856 -0.097902156 -0.025915856 0.031277206
0.050817095 0.4726975 0.0067136697 -0.99373353 0.022817681 -0.10942132 0.041293483
-0.058099587 0.48301005 0.0059788902 0.97326779 -0.22895177 -0.018190321 0.034410331
0.050726116 0.48575914 0.0060940147 -0.94091201 -0.33083466 -0.072339356 0.060624253
-0.057924725 0.4940899 0.0054198266 0.86947268 -0.49309972 -0.029495502 0.067885004
0.050611816 0.494349 0.0053499164 -0.8804602 -0.4740583 -0.0076558129 0.077289149
-0.050814733 0.5 0.0017028148 0.61152208 -0.79119068 -0.0076196967 0.086919956
-0.046047058 0.5 0.0029334694 0.50947154 -0.86020625 -0.021998597 0.076848499
-0.035174411 0.5 0.0044792644 0.16879575 -0.98539519 -0.022459149 0.030488469
-0.02526946 0.5 0.0051752203 0 -1 0 0
-0.01435664 0.5 0.005049685 0 -1 0 0
-0.0050766314 0.5 0.0038406786 0 -1 0 0
0.0061138272 0.5 0.0050477874 0 -1 0 0
0.016651021 0.5 0.0056465226 0 -1 0 0
0.025860004 0.5 0.0027690097 -0.11801929 -0.99254423 -0.030454027 0.018156756
0.033214465 0.5 0.0047127609 -0.32229376 -0.9464218 0.020309992 0.06463322
0.046161294 0.5 0.0057541193 -0.65496993 -0.75457674 -0.040353354 0.088706113
-0.065891996 -0.49702817 0.014698825 0.78523105 0.5576399 -0.26916501 0.072489887
-0.05260304 -0.5 0.013302992 0.36537707 0.90583813 -0.21437564 0.065403163
-0.044889331 -0.5 0.015827002 0.14453222 0.97586256 -0.16371545 0.031402029
-0.036012646 -0.5 0.016383735 0.078767166 0.98212022 -0.17098451 0.026027396
-0.023850041 -0.5 0.015184622 0.0036327648 0.99998194 -0.0047933632 0.0001216147
-0.01525714 -0.5 0.016141171 -0 1 -0 0
-0.0062774108 -0.5 0.014734378 -0 1 -0 0
0.0047025941 -0.5 0.017439418 -0.0017261457 0.99990052 -0.013998852 0.00027877581
0.015788859 -0.5 0.015421975 -0.0039507658 0.99975282 -0.021877535 0.0012178448
0.020696364 -0.5 0.015029841 -0.0098442081 0.99935907 -0.034415655 0.0019260466
0.035225537 -0.5 0.015749004 -0.12044919 0.97747105 -0.17332709 0.028418507
0.046137229 -0.5 0.016010769 -0.3176001 0.91607606 -0.24481604 0.069185257
0.054983199 -0.5 0.014167711 -0.60939878 0.74785674 -0.2633312 0.083857365
0.063172825 -0.49550289 0.015672578 -0.69520277 0.64129353 -0.32470864 0.084825873
-0.067495838 -0.4854095 0.016376739 0.86100018 0.3111057 -0.40235788 0.057555716
0.064127684 -0.48559842 0.013496208 -0.92353988 0.3013595 -0.23718478 0.056939777
-0.06776835 -0.47500965 0.015504993 0.91506362 0.082507819 -0.39477983 0.025843242
0.062466525 -0.47409835 0.016428571 -0.93274957 0.023658959 -0.35974789 0.027070975
-0.068166092 -0.46528929 0.014710189 0.94496715 0.0076736887 -0.32707542 0.019825639
0.061630789 -0.4640559 0.018224964 -0.90523595 -0.0093849832 -0.42480552 0.024587015
-0.067697801 -0.45432803 0.015514842 0.9209646 0.013168824 -0.3894237 0.012499338
0.062802598 -0.45537421 0.015929928 -0.94279319 -0.0054346831 -0.33333385 0.028692167
-0.067922793 -0.44460827 0.014626371 0.94188708 -0.0072506079 -0.33585122 0.017783795
0.062340353 -0.445618 0.016248588 -0.91661012 -0.012912346 -0.3995738 0.022233734
-0.067572422 -0.43378544 0.015461824 0.93452996 0.0066337502 -0.3558225 0.017851159
0.062132783 -0.43566865 0.016277168 -0.93676293 -0.01857629 -0.34947124 0.029383937
-0.066915907 -0.42623892 0.016604468 0.90987742 -0.019483121 -0.41441935 0.015256936
0.062845036 -0.42610711 0.015347304 -0.95540237 -0.0058936402 -0.29524824 0.021873258
-0.066789582 -0.41668662 0.01637977 0.92329437 -0.0080452235 -0.38400877 0.012771743
0.061844505 -0.41631675 0.016526382 -0.93561488 -0.016006179 -0.35265929 0.026935007
-0.066907994 -0.4058688 0.015902473 0.9328317 -0.016305855 -0.35994327 0.014092662
0.059808221 -0.40233234 0.019819167 -0.86965072 0.00093493419 -0.49366659 0.022057904
0.062039509 -0.40445879 0.015555796 -0.94376349 0.0021319292 -0.33061445 0.027066234
-0.067427613 -0.39464316 0.014348214 0.94080651 -0.0063280738 -0.33888513 0.012716919
0.061282899 -0.39534321 0.017154293 -0.93939698 0.002135657 -0.34282482 0.024143416
-0.06676928 -0.38284507 0.015373562 0.93233347 -0.027212206 -0.36057422 0.014262015
0.062499065 -0.38546032 0.013497078 -0.95390022 0.024642164 -0.29911077 0.023233172
-0.067018732 -0.37510124 0.014473259 0.94808537 -0.0064119268 -0.31795129 0.018251974
0.06218636 -0.37578946 0.014460246 -0.95218736 0.0026323746 -0.30550346 0.021589333
-0.066767685 -0.36482847 0.01514087 0.93474275 -0.0082808966 -0.35522863 0.013708562
0.059561901 -0.36308947 0.019375563 -0.87149197 0.0082281129 -0.49034077 0.01926285
0.062240295 -0.36550686 0.013975808 -0.95265329 0.0014030576 -0.30405557 0.021461412
-0.066897519 -0.35358924 0.014501435 0.94521129 -0.0039783521 -0.32643497 0.014561876
0.059917621 -0.35222223 0.018575685 -0.90658563 -0.01342856 -0.42180806 0.015895499
0.061756283 -0.35408878 0.015574041 -0.95107949 -0.0012511218 -0.30894378 0.024147013
-0.066500947 -0.34455836 0.015510138 0.95240581 0.020300116 -0.30415627 0.016055865
0.059617162 -0.34651437 0.018933782 -0.91288477 -0.04466876 -0.40576613 0.023159049
0.060849369 -0.34479582 0.016929287 -0.92774522 -0.023724928 -0.37245932 0.019646361
-0.066243909 -0.33397684 0.015977398 0.92811221 -0.027136536 -0.37131026 0.017845672
0.059335016 -0.33158404 0.019065939 -0.88764197 -0.013410199 -0.46033898 0.021160591
0.061671615 -0.3368012 0.014771101 -0.94110036 -0.044676635 -0.33516276 0.019825287
-0.066512145 -0.32492638 0.01471951 0.9566825 -0.014664022 -0.29076356 0.015749086
0.06117665 -0.32489574 0.015187483 -0.94392926 -0.017030539 -0.32970819 0.019325946
-0.066251867 -0.31633261 0.01499172 0.93028337 -0.01156881 -0.36665908 0.0155529
0.059637338 -0.31349099 0.018197224 -0.92216784 -0.0074566635 -0.38671815 0.018050205
0.06159224 -0.31554633 0.013980726 -0.95762545 -0.0087238187 -0.28788429 0.022740768
-0.065756582 -0.30358124 0.016049268 0.94158876 -0.01245172 -0.3365348 0.022304384
0.058912095 -0.30404171 0.019153913 -0.8936854 -0.01054081 -0.44857019 0.018518196
0.061700683 -0.30509171 0.012530064 -0.96762097 0.002585629 -0.25239447 0.022997661
-0.065933295 -0.29497039 0.01588821 0.9336791 -0.014714348 -0.35780829 0.010175983
0.059052881 -0.29811665 0.018802697 -0.9021917 -6.9878261e-05 -0.43133527 0.0220038
0.061296131 -0.2973879 0.013744157 -0.95785654 -0.019790649 -0.28656462 0.0178569
-0.065460838 -0.28632358 0.01669685 0.93192881 -0.00375784 -0.36262181 0.015509664
0.059071571 -0.28339604 0.018458879 -0.90431011 -0.0011004002 -0.42687473 0.02296795
0.06128807 -0.28598464 0.01316172 -0.96158761 -0.033793718 -0.27241004 0.022485817
-0.065938734 -0.2752029 0.015474001 0.93607718 -0.017073695 -0.35138014 0.016067712
0.058607657 -0.27553546 0.019032108 -0.90079373 -0.026076544 -0.4334636 0.023878695
0.06116388 -0.27563447 0.013398522 -0.95908576 -0.011825112 -0.28286862 0.019224474
-0.066030294 -0.26657715 0.013804944 0.96733075 -0.010694258 -0.25329208 0.021547902
0.05936186 -0.26925445 0.017693676 -0.93937933 -0.0051879534 -0.34284028 0.020799821
0.061024722 -0.26471278 0.013272211 -0.96125495 -0.0029516104 -0.27564496 0.025619775
-0.065905482 -0.25326234 0.014625798 0.9649384 -0.0093997354 -0.26230797 0.020494109
0.059450127 -0.25729638 0.017297663 -0.9369365 -0.013101685 -0.34925407 0.018800089
0.060823224 -0.25409999 0.013131996 -0.96560478 0.0038803834 -0.25998521 0.025198121
-0.065803476 -0.24270277 0.014150145 0.96622849 -0.0060575479 -0.25761548 0.017868422
0.058752686 -0.24504387 0.018150162 -0.93337905 -0.019289786 -0.35837325 0.019857462
0.060890932 -0.24568477 0.012127772 -0.97939116 0.00087569514 -0.20197058 0.021675911
-0.065342225 -0.23509333 0.015509793 0.95089519 -0.017551236 -0.30901515 0.019473961
0.058805041 -0.23096199 0.017766207 -0.92485243 -0.010758045 -0.38017401 0.015047728
0.060700215 -0.2344569 0.012311656 -0.96837556 0.0070603983 -0.24939726 0.024934376
-0.064991556 -0.22641583 0.016204011 0.93304199 -0.022084838 -0.3590889 0.023733255
0.058191672 -0.22532725 0.018625582 -0.9100765 -0.016779648 -0.41410038 0.015808621
0.060628373 -0.22706041 0.012244893 -0.98612654 -0.028223043 -0.16357777 0.020241961
-0.0652178 -0.21601768 0.015337022 0.95851928 -0.012905254 -0.28473523 0.022632992
0.057514768 -0.21310253 0.019445874 -0.90317464 -0.020120453 -0.42880142 0.020908987
0.060488045 -0.21411097 0.011662744 -0.96878278 0.0080743926 -0.24777956 0.023928657
-0.065128148 -0.20657009 0.014875977 0.96323687 -0.009300285 -0.2684927 0.022112483
0.058844063 -0.20462342 0.017005125 -0.93862605 -0.024635918 -0.34405553 0.017671457
0.060209025 -0.20520835 0.012678866 -0.97807825 -0.052158482 -0.20159991 0.021759514
-0.064649835 -0.19546252 0.016356366 0.95575058 -0.011505875 -0.29395312 0.018604346
0.05858751 -0.19429377 0.01695412 -0.94603741 -0.021170627 -0.32336521 0.016952571
0.060188197 -0.19618151 0.011691473 -0.98107135 -0.018013263 -0.19280715 0.025272498
-0.064919688 -0.18515146 0.015014731 0.95957732 0.022631586 -0.28053361 0.021416465
0.058990087 -0.18516877 0.015578666 -0.95658684 -0.035724267 -0.28924984 0.015635677
-0.064503081 -0.17657174 0.016151397 0.94858432 0.020723617 -0.31584561 0.023006827
0.058483332 -0.17405872 0.016782327 -0.94186133 -0.0084329555 -0.3358959 0.016158106
-0.064273857 -0.16364205 0.016686985 0.92575192 -0.0070811501 -0.37806496 0.018194996
0.058950815 -0.16354179 0.01482458 -0.95990503 0.012901804 -0.28002849 0.015868152
0.060023189 -0.16821781 0.01020105 -0.98591775 -0.013233248 -0.16670695 0.015184281
-0.065016583 -0.15550174 0.013173952 0.97916937 -0.037196871 -0.19960862 0.016442735
0.058347907 -0.15501614 0.015548036 -0.94748074 0.02709653 -0.31866291 0.012920205
-0.064027801 -0.14521085 0.016718226 0.94034719 0.0057121445 -0.34016842 0.018462047
0.058787484 -0.14427769 0.014885777 -0.95281416 -0.024640653 -0.3025524 0.01347105
-0.064094864 -0.1353054 0.016256791 0.94761813 -0.029016079 -0.31808469 0.020624364
0.058778692 -0.13589232 0.013868216 -0.96351296 -0.025414363 -0.26645237 0.01833272
-0.063970275 -0.12540607 0.015964586 0.96592641 -0.023620458 -0.25773674 0.016700415
0.057949789 -0.12547569 0.016046703 -0.94148755 -0.024316605 -0.33616942 0.01417653
-0.063825138 -0.11507884 0.015839806 0.94561946 -0.00047248381 -0.3252745 0.019243808
0.058160186 -0.11713737 0.015889252 -0.93028891 -0.0075932611 -0.36674914 0.013681113
-0.063867956 -0.10576919 0.015087652 0.97108626 -0.027391979 -0.23715226 0.016838893
0.057484057 -0.10374665 0.016615508 -0.91743881 -0.0050850809 -0.3978444 0.012182625
-0.063281126 -0.094495684 0.016805632 0.95190984 -0.031415217 -0.30476329 0.02208586
0.057918541 -0.09549018 0.014767511 -0.96005225 -0.0416179 -0.27670875 0.019939598
-0.063816391 -0.083293281 0.014856614 0.96814287 0.0039954856 -0.25036663 0.016520012
0.05736478 -0.087403923 0.01578279 -0.94486922 -0.031375278 -0.32594132 0.015181147
-0.063208595 -0.074146964 0.016341846 0.96389079 -0.0034954294 -0.26627499 0.017002994
0.057371456 -0.076497577 0.014677927 -0.96367401 -0.026261531 -0.26578698 0.018605433
-0.063183755 -0.063977249 0.015996573 0.96385127 -0.0089190295 -0.2662915 0.021609655
0.05746612 -0.06464199 0.015067843 -0.94601017 -0.013920115 -0.32383776 0.011127181
-0.063610889 -0.055202179 0.013756567 0.97185987 -0.0037957814 -0.23552917 0.017098811
0.057549141 -0.055449139 0.013755322 -0.96104217 -0.010422016 -0.27620512 0.014787924
-0.063268982 -0.044461828 0.014908344 0.96832263 -0.0078199282 -0.24957967 0.019238282
0.056952417 -0.04578213 0.015617117 -0.94842923 -0.0088932002 -0.31686419 0.010935856
-0.063053511 -0.033372447 0.015219807 0.97141373 -0.00083504902 -0.23739147 0.018681526
0.056986704 -0.034722611 0.01511184 -0.94893456 -0.030220665 -0.31402215 0.016131766
-0.063332394 -0.025374694 0.013719915 0.97071856 -0.0097683696 -0.24002077 0.018797848
0.056189328 -0.025571663 0.017194225 -0.92867303 0.0084837545 -0.3708024 0.013813205
-0.06287273 -0.015214574 0.015382526 0.97389573 0.0065533947 -0.22690132 0.02184386
0.056835745 -0.014131652 0.014510944 -0.96615875 -0.0013660598 -0.25794458 0.014257935
-0.062597856 -0.0055219396 0.016072677 0.95852262 -0.017783945 -0.28446108 0.020615105
0.05657924 -0.0057246801 0.014085465 -0.96300918 0.0035201202 -0.26944566 0.014520104
-0.061914425 0.0047024004 0.017919159 0.93552703 -0.0096563427 -0.3531231 0.016738858
0.056307692 0.0054895915 0.015260579 -0.94994152 -0.014976602 -0.31206849 0.0098886248
-0.062566049 0.014473377 0.015123979 0.97362208 -0.012635389 -0.22781664 0.01969148
0.056096889 0.015963014 0.015247886 -0.96554369 -0.0024333955 -0.26022986 0.01223955
-0.062104862 0.027515592 0.016288152 0.95080596 -0.001055432 -0.3097854 0.016456261
0.055836704 0.024917567 0.015029798 -0.94351095 0.0019357036 -0.33133569 0.01195216
-0.06191086 0.033450097 0.016437672 0.95397818 -0.012890048 -0.29959875 0.01633059
0.055668771 0.034937859 0.01624427 -0.95834291 -0.025336424 -0.28449416 0.0095713213
-0.062204618 0.046623137 0.015325036 0.95876926 -0.0097903498 -0.28401685 0.014842461
0.055624697 0.044440046 0.01541671 -0.95563734 -0.025119899 -0.29347292 0.009653517
-0.062054768 0.056112871 0.01533572 0.96391553 -0.014813439 -0.26579595 0.017145166
0.055643115 0.053193089 0.015581988 -0.95566106 -0.017735273 -0.29393426 0.0094407657
-0.062136635 0.065844156 0.0140416 0.97560024 0.00016236618 -0.21955429 0.014509553
0.055352628 0.065161355 0.014917209 -0.94605935 -0.00089677819 -0.32399216 0.011369387
-0.062307976 0.074762285 0.013346774 0.97754198 -0.0294869 -0.20866771 0.018984044
0.056069266 0.073874816 0.012295636 -0.97616249 -0.021503504 -0.21597308 0.017344123
-0.061377797 0.085806906 0.016404435 0.9603945 -0.041387808 -0.27555302 0.01374197
0.054821171 0.085239545 0.016390277 -0.94059521 -0.0040648584 -0.33950564 0.012323372
-0.061522841 0.09504538 0.015534265 0.96514666 -0.01755395 -0.26112038 0.014300427
0.05560866 0.091998383 0.013735595 -0.96746635 -0.030757206 -0.25112325 0.010070705
-0.061880536 0.10527485 0.013402475 0.9751901 0.0039512799 -0.22133356 0.016709769
0.054847926 0.10528491 0.015273671 -0.9667927 -0.00013271337 -0.25556159 0.015615804
-0.06150303 0.11622246 0.014549282 0.96722442 0.0099647259 -0.25372747 0.013377339
0.05485836 0.1143118 0.015147544 -0.96028316 -0.018148756 -0.27843669 0.014115695
-0.06119955 0.12500602 0.015309669 0.96327657 -0.0064138775 -0.26843458 0.014046482
0.054522742 0.12512389 0.015380348 -0.96712404 -0.0062001892 -0.25422949 0.012064297
-0.061327439 0.13539945 0.013861075 0.97478533 0.034163598 -0.22051381 0.014139058
-0.059768654 0.13221535 0.019636331 0.92277604 -0.0079532024 -0.38525462 0.015266345
0.05479788 0.13407196 0.014838834 -0.96244508 -0.018482029 -0.27084669 0.0086214449
-0.061293986 0.14514136 0.014038166 0.96432889 -0.043101296 -0.26117456 0.01482047
0.05466982 0.14801113 0.014415834 -0.9678973 -0.013015225 -0.25100896 0.028093629
-0.061155014 0.15381846 0.014220603 0.97314519 -0.053251788 -0.22394806 0.078410685
0.053732913 0.15555002 0.016894937 -0.94778746 -0.022611698 -0.31809989 0.093317196
-0.061654568 0.16431722 0.010653071 -0.89858282 -0.43421799 0.063274257 0.22409306
-0.059616882 0.16409385 0.019136956 0.92349315 0.31584772 -0.21771674 0.19174431
-0.0034384974 0.16936851 0.011914422 -0.033885036 -0.99649608 0.076467298 0.00099295436
0.003466029 0.16889036 0.011296834 0.008148782 -0.99726218 0.073496804 0.0011972275
0.016471934 0.16965468 0.012793752 0.061830599 -0.99602693 0.064089261 0.0011803091
0.053899281 0.16582267 0.015361567 0.81477332 -0.56864649 0.11307418 0.25197828
-0.081242263 0.17926694 0.011341204 -0.18268754 -0.97974521 0.082003392 0.10815763
-0.074782953 0.17830735 0.016978823 -0.200404 -0.9448362 0.25908065 0.20805459
-0.063167557 0.17572451 0.013649704 -0.71131498 -0.68747109 0.14633679 0.21398023
-0.055850215 0.17454545 0.017439656 -0.77154785 -0.59187603 0.23323071 0.20773761
-0.043639649 0.17197417 0.013677123 -0.066307157 -0.99770772 0.013513829 0.14960204
-0.036215987 0.17154323 0.013867991 -0.046111263 -0.99859083 0.026272759 0.084626161
-0.026145924 0.17089285 0.013450505 -0.05963533 -0.99499768 0.080144785 0.0011494767
-0.016776774 0.17040052 0.01422136 -0.058770385 -0.99429035 0.089066327 0.00075624808
0.018392723 0.17015779 0.015921127 0.066520281 -0.99289685 0.098644651 0.00077136955
0.027277729 0.17120798 0.017258184 0.045075178 -0.99700999 0.062763356 0.08915709
0.035499986 0.17176442 0.014224314 0.067672402 -0.99505627 0.072687387 0.13702098
0.044905905 0.17277808 0.014630844 0.363709 -0.89457208 0.25972411 0.22349602
0.054573119 0.17405118 0.014428269 0.33349997 -0.90034097 0.27957818 0.22527526
0.064823151 0.1749925 0.014662004 0.32911816 -0.93531471 0.12987547 0.21278466
0.076614663 0.17788994 0.014212886 0.13999076 -0.98511815 0.099723212 0.070375346
0.080939017 0.17893456 0.012371069 0.19628498 -0.97660369 0.087848514 0.02189545
-0.11285062 0.18847421 0.015790891 -0.36269704 -0.92392886 0.12168159 0.0023181927
-0.10424373 0.18508859 0.015111436 -0.30663401 -0.94646978 0.1008486 0.0013288097
-0.095588274 0.18302068 0.015501968 -0.27106208 -0.95389742 0.12886041 0.0012763455
-0.08609806 0.18083982 0.015857885 -0.14823322 -0.97992241 0.13333784 0.035604928
-0.06107147 0.1856232 0.012656393 -0.18411362 -0.9561165 0.22791108 0.25046629
-0.059533767 0.18566114 0.01875185 -0.8511641 -0.32848892 0.40940759 0.24322695
0.053575102 0.18485025 0.015953125 0.48025531 -0.85672349 0.18809505 0.28906628
0.086619966 0.18092582 0.016315082 0.2708551 -0.95638233 0.10940946 0.0013602782
0.094888814 0.18328699 0.01653276 0.27406332 -0.95352936 0.1251844 0.0011886356
0.10472486 0.18602125 0.016026502 0.2921088 -0.95009297 0.1095253 0.00103068
0.11523113 0.1887688 0.01370678 0.33292893 -0.9385131 0.091386698 0.001921946
-0.13454272 0.19808237 0.015336444 -0.40309393 -0.90506738 0.1355295 0.0023179862
-0.12464211 0.19349635 0.013480325 -0.39576215 -0.9119181 0.10852512 0.0022473477
-0.11871576 0.19118363 0.01681494 -0.38194779 -0.91383785 0.13789947 0.0020420947
-0.06063123 0.19690254 0.014411476 0.96177685 -0.20369564 -0.18301174 0.08982408
-0.059930231 0.19135793 0.017639983 0.97789913 -0.1362801 -0.15855905 0.1822654
0.053699791 0.19471321 0.015763888 -0.94880247 -0.19961607 -0.24480057 0.13240358
0.1235435 0.19217949 0.016239414 0.38757473 -0.91151261 0.13758878 0.0021141623
0.13398646 0.19739559 0.01487575 0.44375312 -0.88687682 0.12857988 0.0019867015
-0.1543051 0.20693962 0.012669328 -0.51707584 -0.85116088 0.090320565 0.0024810068
-0.14346792 0.20190781 0.013835284 -0.44534341 -0.8862893 0.12712409 0.0021965527
-0.13905253 0.2004742 0.019295692 -0.42806381 -0.88842779 0.16570272 0.0019050164
-0.05917846 0.20087631 0.0191964 0.93301523 -0.18464369 -0.30885154 0.06285762
0.053605456 0.20574944 0.014459059 -0.96755427 0.013733831 -0.25228983 0.015873771
0.14351167 0.20217608 0.013865979 0.45777869 -0.88131028 0.11717837 0.002493209
0.15177034 0.20669556 0.016842317 0.48329967 -0.86081868 0.15941317 0.0020233484
-0.16472086 0.21467617 0.014585657 -0.56645495 -0.81409144 0.12799962 0.0021396521
-0.060432557 0.2156834 0.014252726 0.97528505 -0.00047265401 -0.22095002 0.015785867
-0.059134834 0.21684512 0.018868035 0.93445182 -0.0053902976 -0.35604879 0.014594419
0.053447362 0.21483247 0.014785354 -0.96684539 -0.02350818 -0.25427809 0.015175148
0.16541325 0.21367444 0.01434546 0.56097406 -0.81906444 0.12017252 0.0026270302
0.17195822 0.21913266 0.01508831 0.60972875 -0.78231704 0.12732187 0.0022636233
-0.18170284 0.22775881 0.016973838 -0.64317524 -0.74711454 0.16776596 0.0025341117
-0.17546418 0.22279668 0.014492924 -0.61172706 -0.77880257 0.13876805 0.0012451279
-0.060561996 0.22786914 0.012498538 0.98498291 0.002467863 -0.17263423 0.015030358
-0.059455045 0.22661437 0.017829653 0.94007105 -0.032811329 -0.33939615 0.014083165
0.052855413 0.22480261 0.016704483 -0.95589411 -0.027040236 -0.29246429 0.015047346
0.17690788 0.22339812 0.014617799 0.62691051 -0.76942211 0.12236352 0.0020837362
0.18200806 0.22815056 0.017039603 0.65826452 -0.73351544 0.16924238 0.0018483953
-0.19274673 0.23667918 0.014391188 -0.72309422 -0.67692012 0.13752805 0.0039178687
-0.18781354 0.23184586 0.011453083 -0.68350416 -0.72342789 0.097335212 0.0039138799
-0.060671777 0.23527522 0.011133282 0.98987067 -0.0020756789 -0.14195658 0.014481394
0.053176265 0.23477416 0.014607412 -0.96795964 -0.020667491 -0.25025389 0.016371034
0.18638591 0.23199403 0.017030535 0.67467016 -0.71732265 0.17397763 0.0021020861
0.19255437 0.2376827 0.01757866 0.69475883 -0.69687444 0.1779781 0.0025758536
-0.2008117 0.24759574 0.014400673 0.7820996 0.60792953 -0.13690059 0.0028327899
-0.1959374 0.24097301 0.016204512 -0.74450827 -0.64969844 0.15362099 0.0036527531
-0.060299437 0.24295531 0.013177755 0.98178285 -0.010579253 -0.18971168 0.015103566
-0.059329927 0.24373485 0.017394794 0.95396429 -0.025570316 -0.29882812 0.013336101
0.053253315 0.24352269 0.013876962 -0.96938336 -0.030533152 -0.24364643 0.012039884
0.19872208 0.2428695 0.015301076 -0.76503789 0.62494004 -0.15545765 0.0042548096
0.20274922 0.24854292 0.015739508 -0.79014242 0.59328103 -0.15392414 0.0040413644
-0.20620918 0.25555983 0.014923814 0.82295942 0.54923302 -0.14519264 0.002125334
-0.060315765 0.25643888 0.011754167 0.9865163 -0.0028785034 -0.16363788 0.015328179
-0.059685297 0.25351971 0.01593728 0.96909904 -0.024064034 -0.24549556 0.010822498
0.053043939 0.25573605 0.013835311 -0.97526759 -0.0041049202 -0.22098902 0.015143411
0.20689693 0.25594586 0.015793219 -0.84133637 0.51759076 -0.15573376 0.0028289668
-0.21381103 0.26619947 0.013962782 0.87956101 0.45495245 -0.13925083 0.0044013686
-0.20892546 0.26115987 0.019614015 0.84382993 0.49884209 -0.19775653 0.0037277883
-0.060217619 0.26372156 0.011782802 0.98282939 -0.027170779 -0.18250524 0.011454825
-0.059245948 0.2654424 0.016773287 0.96064419 -0.0017034813 -0.27777669 0.012775852
0.052638758 0.26598033 0.015357015 -0.96402442 -0.0053550941 -0.26575971 0.013108935
0.21345961 0.26785818 0.01684314 -0.87985289 0.43655929 -0.18781631 0.0032519156
-0.21722616 0.27402985 0.015554224 0.91171694 0.37030861 -0.17788695 0.0042980351
-0.05902091 0.27559727 0.016832272 0.96699309 -0.0066455393 -0.25471598 0.0088339318
0.052510239 0.27529228 0.014586905 -0.97378683 0.0068708211 -0.22735873 0.015255712
0.21837766 0.27536234 0.013583136 -0.91697997 0.36960763 -0.15012641 0.0061737346
-0.2210312 0.28907272 0.013728318 0.96756625 0.20863205 -0.14243662 0.003271661
-0.21897367 0.28320056 0.018792324 0.94096678 0.28203556 -0.1871829 0.0038592194
-0.06004937 0.28562826 0.010904314 0.98797435 -0.0025779211 -0.15459655 0.013039234
-0.058675278 0.2840499 0.017442305 0.95889777 -0.025990006 -0.28255883 0.010557843
0.052396249 0.28449076 0.014679462 -0.96919197 -0.019017233 -0.24557137 0.013639956
0.21962789 0.2808848 0.01983631 -0.92514348 0.30399284 -0.22737168 0.0058896071
0.22136872 0.28456205 0.014601091 -0.95631659 0.24829845 -0.15429322 0.0065323357
-0.22196122 0.29529366 0.015723374 0.97864771 0.14495648 -0.14572684 0.0043093427
-0.058988038 0.29424578 0.015572223 0.96551937 -0.013764066 -0.25996721 0.0089255786
0.052265529 0.29395795 0.014191251 -0.97740626 -0.0028682332 -0.2113499 0.014025194
0.22254722 0.29448688 0.015442863 -0.97304773 0.1697903 -0.1560427 0.0049146297
-0.22360876 0.30627641 0.014860046 0.98773259 0.025038822 -0.15413466 0.0039389161
-0.059151463 0.30470023 0.014731434 0.97632456 -0.016643126 -0.21566978 0.012326063
0.052026082 0.30521646 0.015061423 -0.97372586 -0.021117037 -0.22674218 0.01460894
0.22310519 0.30297953 0.017032091 -0.98412472 0.069958955 -0.16310814 0.0043046772
-0.22305679 0.31616268 0.01672003 0.98062032 -0.063137829 -0.18546529 0.0038052348
-0.059440918 0.3149524 0.01263943 0.97645026 0.0040332503 -0.21570489 0.011288728
0.052376498 0.31413934 0.013052803 -0.98071307 -0.016740315 -0.19473465 0.012573387
0.22391051 0.31173763 0.013337008 -0.99246269 -0.019489672 -0.12098764 0.0027803611
-0.22227402 0.3250818 0.014400961 0.97926337 -0.14893512 -0.13733765 0.0038204486
-0.058625758 0.32522568 0.015955148 0.95849872 -0.016952083 -0.28459236 0.0091517167
0.051721681 0.32472697 0.015110414 -0.96645546 -0.0095411437 -0.25665686 0.013106253
0.22266361 0.32543105 0.015078781 -0.97918314 -0.13275562 -0.15354598 0.0040946752
-0.22070803 0.33233312 0.01457227 0.96435761 -0.22051866 -0.1462393 0.0036304765
-0.21935777 0.33674562 0.016954551 0.94486463 -0.27694046 -0.17474191 0.0038033465
-0.058725968 0.3349168 0.014928967 0.96507949 -0.016864257 -0.26141408 0.0084507326
0.051655367 0.33515021 0.015094344 -0.96579772 -0.030891869 -0.2574499 0.012909413
0.22137956 0.33705747 0.012830765 -0.94933766 -0.28729537 -0.12735485 0.005039094
-0.21785979 0.34457073 0.014471764 0.92905176 -0.34412691 -0.13579209 0.0041207708
-0.058265388 0.34502393 0.016836805 0.95683002 -0.045617338 -0.28704599 0.0091641722
0.051870205 0.34412283 0.013379763 -0.98573989 -0.026789259 -0.16613042 0.014507077
0.21810874 0.34473491 0.016170375 -0.91663373 -0.36276203 -0.16788796 0.0043015652
-0.21403673 0.35433173 0.01375077 0.88355428 -0.45182523 -0.12323088 0.0045988192
-0.20958726 0.35871723 0.019302227 0.84891868 -0.48683465 -0.20574026 0.0040082149
-0.059044708 0.35383406 0.011821544 0.97890657 -0.03563207 -0.20117743 0.012791256
0.051344711 0.3528766 0.016489724 -0.96508723 -0.0058982465 -0.26186213 0.011069761
0.21280226 0.35496309 0.014377949 -0.87882125 -0.45633236 -0.13940567 0.0024726233
-0.20666263 0.36447817 0.014929129 0.82263577 -0.54863554 -0.14922933 0.0025974526
-0.058707722 0.36399695 0.013366619 0.96722615 -0.017680846 -0.25329998 0.0076598781
0.051491152 0.36593738 0.013357667 -0.97597879 -0.0053017787 -0.21780074 0.012753475
0.20661095 0.36548182 0.014477057 -0.84199077 -0.52048558 -0.14193733 0.0037185631
-0.20081396 0.37290904 0.013811593 0.78407598 -0.60275346 -0.14803088 0.0025099709
-0.19733118 0.37794128 0.012492122 0.76977247 -0.62631202 -0.12322194 0.0026844393
-0.058102332 0.37532049 0.015593011 0.96672916 0.0094214687 -0.25562871 0.0083729178
0.049805909 0.37443143 0.019404611 -0.93989724 0.00090386329 -0.34145617 0.012756361
0.051794447 0.37829438 0.010186421 -0.99286634 -0.001557181 -0.11922257 0.01184589
0.19860823 0.37771785 0.016245887 -0.75218058 -0.64041489 -0.1552196 0.0043831994
0.20067108 0.37534714 0.016402431 -0.77057445 -0.61199307 -0.17798731 0.0043283594
-0.19232221 0.38446379 0.013111192 0.70996404 -0.69419342 -0.11851861 0.0038369156
-0.18790571 0.38859856 0.01195284 0.67627317 -0.72820175 -0.11125112 0.0035902252
-0.0579836 0.38402295 0.015628356 0.96418697 -0.0027079904 -0.26520973 0.0081285667
0.049974009 0.38225269 0.018790573 -0.95996571 -0.010865483 -0.27990681 0.013513495
0.05156691 0.3852267 0.011127265 -0.99087387 -0.0083627217 -0.13453218 0.015680142
0.18764591 0.3874028 0.015940154 -0.67832905 -0.71925694 -0.15013073 0.0029972778
0.19330341 0.38277531 0.013869232 -0.71687675 -0.6859411 -0.12479029 0.0039249528
