# .PCD v0.7 - Point Cloud Data file format
VERSION 0.7
FIELDS x y z normal_x normal_y normal_z curvature
SIZE 4 4 4 4 4 4 4
TYPE F F F F F F F
COUNT 1 1 1 1 1 1 1
WIDTH 579
HEIGHT 1
VIEWPOINT 0 0 0 1 0 0 0
POINTS 579
DATA ascii
0.0045602513 -0.12611635 0.42397553 -0.085911758 0.92364061 -0.37350655 0.22603074
0.015022454 -0.12678672 0.42426342 -0.20022197 0.83060277 -0.51962501 0.2086851
0.025495021 -0.12515359 0.4252528 -0.49813163 0.74516493 -0.44338924 0.16135307
-0.028435081 -0.11489687 0.42420402 0.90086961 0.36189035 -0.23972772 0.25677851
-0.0005500812 -0.11431897 0.42389292 0.14689152 0.97875065 -0.14307328 0.24451508
0.00027134392 -0.11450437 0.42730063 0.099401638 0.99434876 -0.037280098 0.23795058
0.02841037 -0.11548188 0.42436954 -0.81139338 0.52682996 -0.25316182 0.19943976
-0.028760236 -0.10535748 0.42485169 -0.96167505 0.047479138 -0.27004975 0.20064215
-0.0002067306 -0.10743763 0.42269039 0.016827857 -0.79179245 -0.61055839 0.29999092
0.0001066738 -0.10612352 0.42286497 0.061852146 -0.55254316 -0.83118612 0.29206094
0.028768037 -0.10466313 0.42373607 0.98447841 -0.10183743 -0.14293812 0.1780358
-0.028846154 -0.094708934 0.42613748 -0.95699328 0.057554588 -0.28434351 0.12416678
0.028846156 -0.09540686 0.42295304 0.93480277 0.058809482 -0.35026449 0.14165461
-0.026898652 -0.085606575 0.4237968 -0.75685495 0.20685612 -0.61998469 0.083451912
-0.013359666 -0.083398797 0.42162395 -0.35331041 0.17538641 -0.91891861 0.080585115
-0.0043985783 -0.083765537 0.42153069 -0.16158542 0.20185648 -0.96599388 0.045063984
0.0059586456 -0.082876474 0.42173719 0.18804525 0.17783119 -0.965927 0.04560706
0.015443253 -0.083974779 0.42150462 0.28483632 0.23713666 -0.92878115 0.090883888
0.026901925 -0.085643083 0.42281505 0.76092017 0.23362473 -0.60532635 0.092493042
-0.02657482 -0.075847484 0.42485413 -0.71316028 0.059009712 -0.69851291 0.07531739
-0.015488954 -0.074343987 0.42286876 -0.47286594 0.056375325 -0.87932909 0.084324501
-0.0052133477 -0.074492842 0.42285928 -0.16564493 0.079549313 -0.98297191 0.035877593
0.004896021 -0.073732421 0.4228856 0.17279685 0.0093631959 -0.98491299 0.034640469
0.015185888 -0.07408163 0.42285264 0.46683297 0.053783689 -0.88270849 0.091440253
0.02656338 -0.075626291 0.42379734 0.79104841 0.099076726 -0.60367739 0.088641278
-0.026314864 -0.063811541 0.42408425 -0.73152572 -0.1104014 -0.67281628 0.087562904
-0.014362597 -0.064645752 0.42240196 -0.36354011 -0.20539644 -0.90865332 0.09593755
-0.0050660851 -0.064553805 0.42240551 -0.18997574 -0.18936104 -0.96335435 0.045027658
0.0042538028 -0.064892061 0.42244914 0.20359321 -0.20213374 -0.95796233 0.041601095
0.01466953 -0.0653947 0.42250252 0.41192564 -0.16176562 -0.89674371 0.096709304
0.025931094 -0.065651275 0.42408174 0.75527555 -0.098865971 -0.64790767 0.10214271
-0.026489818 -0.057042461 0.42346388 -0.82302326 -0.22846709 -0.52003407 0.092345916
-0.014403831 -0.057690367 0.42106959 -0.33385304 -0.44072825 -0.83324713 0.088052474
-0.005346064 -0.057428543 0.42099419 -0.20349127 -0.38362768 -0.9007892 0.063371353
0.006285721 -0.057271622 0.42095584 0.12886778 -0.38260493 -0.91488063 0.049638279
0.013597893 -0.058217481 0.42122772 0.32562113 -0.4186697 -0.84775382 0.089871265
0.026479227 -0.056527104 0.42276883 0.80466527 -0.25218961 -0.53750741 0.095819332
-0.028846152 -0.045313202 0.42560405 -0.92459303 -0.15528639 -0.34787068 0.09369985
0.028846152 -0.044742499 0.42413199 0.89024252 -0.22371013 -0.39676428 0.097687893
-0.028846154 -0.03484894 0.42562777 -0.97440708 0.072357848 -0.21282664 0.12332372
0.028846152 -0.034094974 0.42486975 0.97869301 0.024367714 -0.20387799 0.13406415
-0.028846152 -0.024499526 0.42476448 -0.99462211 0.048725445 -0.091392696 0.10606391
-0.014030284 -0.020450193 0.42413405 0.94119537 0.33783415 -0.0044083176 0.25452667
-0.0045472858 -0.020450879 0.42481413 -0.0055338251 0.85360962 -0.52088398 0.16883029
0.0037997416 -0.020449661 0.42355141 -0.01542051 0.83533335 -0.54952741 0.19263089
0.01385349 -0.020422194 0.42533407 -0.92656004 0.35774249 -0.11621914 0.25775564
0.028846154 -0.025219802 0.42451444 -0.99500704 -0.087326773 0.048321646 0.11113333
-0.028846156 -0.015024761 0.42427617 0.99864024 0.045410529 0.025603082 0.12025839
-0.01923077 -0.017955471 0.42658332 -0.99497688 -0.086083934 -0.051093288 0.19288197
0.019228309 -0.015522459 0.42385972 -0.94112933 0.33497602 -0.045460422 0.19942227
0.028846154 -0.015068668 0.42520431 -0.99990737 -0.012201827 0.0060334331 0.1252996
-0.028846154 -0.0037055532 0.42564386 0.99614573 0.087714389 -4.7688638e-05 0.078306422
-0.01923077 -0.0056826235 0.42524925 0.96415424 0.26126042 0.046363339 0.13362998
0.019228356 -0.0057473686 0.42523643 -0.97710377 0.21220471 0.015407798 0.13253862
0.028846154 -0.0057720677 0.42518541 -0.99375933 0.10365645 0.041203748 0.10573729
-0.028846158 0.0037677996 0.42521247 0.99956995 0.028681286 0.0060982988 0.056882028
-0.019230772 0.0064922888 0.42618021 0.99826616 0.053685144 -0.02413651 0.05261213
0.019228397 0.0050307321 0.42641857 -0.99492967 0.097819678 -0.023370733 0.065228418
0.028846152 0.0055034342 0.4260157 -0.99975216 0.021804398 0.0045002564 0.054572463
-0.028846154 0.013373281 0.42357376 0.9993028 -0.015918832 -0.033771701 0.054455359
-0.019230772 0.014234805 0.42471093 0.99986738 -0.012424882 -0.010528517 0.053862654
0.019228453 0.014266687 0.42421839 -0.99973261 0.022125926 0.0067187971 0.05207406
0.028846156 0.015769033 0.42282367 -0.99980813 0.016277261 -0.010893992 0.0533618
-0.028846154 0.025293523 0.42452875 0.99999666 0.0020533504 -0.0015582438 0.057904791
-0.019230772 0.024127183 0.4262189 0.99874628 -0.049521245 -0.0073168799 0.070159093
0.019229753 0.025715416 0.42541662 -0.99130279 -0.10471657 -0.079708025 0.076700538
0.028846158 0.024746548 0.4258382 -0.99961758 -0.010087473 -0.025745383 0.059017595
-0.02884615 0.033975828 0.42544642 0.99949014 -0.030758429 0.008560963 0.091244757
-0.019230772 0.034838833 0.4247869 0.96967673 -0.24420741 0.0094764428 0.15313509
0.019231005 0.034097742 0.42451513 -0.97405577 -0.21956027 -0.054850899 0.12736312
0.02884615 0.035242673 0.42431068 -0.99795097 -0.056822479 -0.029410368 0.083899483
-0.028846154 0.044799116 0.4260529 0.99801666 -0.036994312 0.050932255 0.10547921
-0.01565833 0.048317473 0.42575616 0.9293853 -0.36237711 -0.070183739 0.19794795
-0.0045586405 0.049228072 0.42603016 -0.0079541635 -0.69539547 -0.71858329 0.19213806
0.004271897 0.049228173 0.42584363 0.035809379 -0.609694 -0.79182762 0.1672997
0.017144455 0.047326166 0.42532474 -0.96033889 -0.27824008 -0.018211439 0.18243656
0.028846158 0.046091434 0.42552748 -0.99689966 -0.049097762 0.061485294 0.10645457
-0.028846154 0.0535849 0.42493233 0.98847932 -0.13267381 0.072844967 0.13429667
0.028846154 0.054783195 0.42459857 0.98939955 0.11762913 -0.085158043 0.12939012
-0.026806956 0.064178132 0.42542467 -0.93714994 0.16835833 -0.30562314 0.1304277
-0.018677067 0.068564922 0.42134121 -0.77110493 0.30990154 -0.55619979 0.1473587
0.019163061 0.067787796 0.42116472 0.77968526 0.48497728 -0.39609081 0.16829056
0.024864741 0.066135824 0.4247165 0.90962619 0.24201852 -0.33764967 0.15255608
-0.02428066 0.072273359 0.42750302 -0.88694823 0.2742776 -0.37161088 0.077008896
-0.016204897 0.075598881 0.42290148 -0.53872687 0.38044071 -0.75169021 0.11223834
-0.0081033036 0.079477102 0.42026541 -0.2238089 0.44575179 -0.86672664 0.082908429
0.0031319908 0.079294764 0.42020893 0.10628727 0.45888752 -0.88211405 0.075768113
0.016032504 0.075852565 0.42290458 0.54108191 0.39866275 -0.74047178 0.1128981
0.022033073 0.074664734 0.42685395 0.78462881 0.38750803 -0.48393726 0.098248936
-0.021109391 0.084288955 0.42849499 -0.74428397 0.22817087 -0.6276778 0.081696719
-0.015564201 0.086445369 0.42547557 -0.54872388 0.23499551 -0.80229616 0.053587772
-0.0053231586 0.085032135 0.42154041 -0.14632125 0.38232568 -0.91236901 0.068194129
0.005047611 0.084497936 0.4214395 0.12884323 0.36188984 -0.92327416 0.054041002
0.015396206 0.085994013 0.42526773 0.49702546 0.22053215 -0.83924448 0.060940858
0.021140805 0.084508389 0.4285537 0.79248244 0.19388953 -0.57825458 0.071526848
-0.014358803 0.095174409 0.42626384 -0.53881031 0.14346483 -0.83012128 0.069133021
-0.0056135743 0.09570244 0.4234263 -0.22821458 0.11687224 -0.96657073 0.068106689
0.0051003289 0.094600163 0.42325264 0.15063213 0.23343681 -0.96063375 0.054486781
0.015582403 0.095721945 0.42715111 0.57822949 0.13229564 -0.80507672 0.067990713
-0.013960891 0.10550442 0.42699805 -0.538701 0.093533479 -0.83728892 0.068470769
-0.0055924463 0.10620574 0.42432633 -0.24669541 0.083385333 -0.96549898 0.051301066
0.005487883 0.10655089 0.42433843 0.20317419 0.020765489 -0.97892237 0.064846881
0.013446438 0.10382486 0.42655632 0.42847964 0.059966207 -0.90155941 0.056641899
-0.012824528 0.11418505 0.42638546 -0.47598541 -0.046774697 -0.8782084 0.066249132
-0.0056047491 0.11535977 0.42440075 -0.19684944 -0.10575105 -0.9747138 0.063602015
0.0057382099 0.1154348 0.42437708 0.21407881 -0.12661265 -0.96857607 0.054736521
0.014403778 0.11383344 0.4274807 0.49392956 -0.025186073 -0.86913711 0.070255697
-0.013156687 0.12392642 0.42601532 -0.46957886 -0.070308633 -0.88008648 0.047281858
-0.0041752029 0.12544419 0.42369401 -0.12030438 -0.13460854 -0.98356867 0.046349891
0.0044929506 0.12460638 0.42377812 0.096926145 -0.16457942 -0.98158997 0.036319789
0.013820508 0.12600233 0.42622373 0.47392809 -0.16848175 -0.86429513 0.043220647
-0.020913159 0.13500452 0.42939138 -0.67984551 -0.1898874 -0.70834523 0.052235842
-0.015629385 0.13679947 0.42558512 -0.5337953 -0.22538939 -0.81502289 0.035824247
-0.0057160472 0.13557814 0.42215127 -0.11247434 -0.17085195 -0.97885609 0.035004426
0.0039953114 0.13563059 0.42212313 0.1074494 -0.17761132 -0.97821718 0.031316843
0.015607838 0.13457583 0.42601916 0.56189167 -0.17763799 -0.80791247 0.035227623
0.021075912 0.13860735 0.42865622 0.65087777 -0.21416865 -0.72834748 0.047375225
-0.022274218 0.14612685 0.42734253 -0.6508013 -0.27373657 -0.70818502 0.043173075
-0.015051808 0.14577022 0.42288336 -0.45834899 -0.24685925 -0.85380137 0.036922041
-0.0035841193 0.14142828 0.42088723 -0.15323249 -0.21689138 -0.96409434 0.034038961
0.0054010036 0.14188255 0.42077827 0.15226433 -0.23834322 -0.95917052 0.034857653
0.014896569 0.14517447 0.42296013 0.4556196 -0.26477572 -0.84988505 0.040362049
0.022446373 0.14399591 0.42808101 0.66387516 -0.33730888 -0.66745222 0.050261836
-0.024835022 0.15550265 0.42569613 -0.67059672 -0.23852217 -0.70242947 0.016760822
-0.01798057 0.15387234 0.42149463 -0.50528312 -0.27232233 -0.81885868 0.029305711
0.016720887 0.15299423 0.42125639 0.52072459 -0.24560466 -0.81763327 0.029309088
0.024400717 0.15562525 0.4250412 0.65622771 -0.22386478 -0.72058982 0.019994998
-0.025170809 0.16514225 0.42358127 -0.68723768 -0.15285172 -0.71016955 0.014942845
0.026044399 0.1637511 0.42431054 0.68087417 -0.15128799 -0.71660471 0.019296577
0.030543715 0.16375346 0.42922011 0.81396133 -0.15416929 -0.56008816 0.021182707
-0.025715515 0.17386517 0.42403707 -0.68956757 -0.034776933 -0.72338593 0.018832646
0.02495167 0.17376667 0.42321214 0.68433094 -0.036176614 -0.72827357 0.018612714
0.030653434 0.17739327 0.4293631 0.79048175 0.053306274 -0.61016142 0.033475731
-0.030429574 0.1875895 0.42907137 -0.79710406 0.35077962 -0.4915067 0.073289588
-0.026200205 0.18491004 0.42452055 -0.6873548 0.25434297 -0.68033302 0.067059487
0.026333274 0.1851631 0.42444003 0.66746539 0.25693092 -0.69891095 0.065788485
0.03068891 0.18670276 0.42940933 0.79627079 0.23552771 -0.55720693 0.056234762
-0.030601429 0.19457188 0.42929536 -0.6787495 0.51235908 -0.52610576 0.078838989
-0.026487434 0.19552989 0.42460778 -0.58016419 0.52501589 -0.62271017 0.084104665
0.026729675 0.19522604 0.42499959 0.55866265 0.58831024 -0.58462548 0.10193291
0.030597204 0.19607636 0.42950258 0.70386052 0.50263369 -0.50193602 0.073359229
-0.022335077 0.20063178 0.42712513 -0.4453851 0.75561726 -0.48028603 0.091676615
-0.015968766 0.2007212 0.42535421 -0.305318 0.77500063 -0.55331266 0.081633724
-0.0054859677 0.20072122 0.42569381 -0.11438525 0.83966494 -0.53092265 0.073227867
0.0065764426 0.20072117 0.42482746 0.096567206 0.86467254 -0.49296677 0.073142119
0.015766472 0.20070103 0.42541122 0.31499073 0.738478 -0.59618038 0.096207291
0.021898424 0.20072116 0.42605513 0.43871072 0.71082485 -0.54978269 0.09015891
-0.026079061 -0.12159109 0.4309831 0.62889081 0.70083553 -0.3366394 0.15694265
-0.015630137 -0.12092686 0.4319784 0.25836676 0.83857632 -0.47962108 0.19537562
-0.0015670001 -0.12212545 0.43040034 0.068048984 0.94895965 -0.30796927 0.15230004
0.0056426083 -0.12153453 0.43117833 -0.013318702 0.91987848 -0.39197734 0.18604062
0.015314345 -0.12076813 0.43218738 -0.26877582 0.85790884 -0.43789494 0.1814598
0.025050635 -0.120919 0.43196961 -0.56750786 0.74383801 -0.35304391 0.14074942
-0.02727264 -0.11513654 0.43597427 0.61058301 0.64735258 -0.45620504 0.12573206
-0.015848557 -0.11812318 0.43566963 0.27176589 0.86048675 -0.43093616 0.15809494
-0.0046875053 -0.1171857 0.43617916 0.087292306 0.89952761 -0.42805395 0.139837
0.0038280829 -0.1175781 0.43541008 0.014405599 0.88686222 -0.46180931 0.13766712
0.014625967 -0.11722588 0.43685094 -0.26933968 0.86866689 -0.41578129 0.1521375
0.026794996 -0.11576624 0.43523371 -0.66469675 0.66098708 -0.34824467 0.1423019
-0.028839182 -0.10520134 0.4348053 0.97656196 0.1914556 -0.098343506 0.13183583
0.028838268 -0.10429485 0.4353579 -0.9357053 0.31167117 -0.16527757 0.11863235
-0.028846152 -0.095622137 0.43358189 -0.9845351 0.011603522 -0.17480294 0.10939709
0.028846156 -0.095963247 0.43551406 -0.98729575 0.15888759 0.0013124356 0.10770278
-0.028846154 -0.085536905 0.43446204 -0.95948017 0.0091436878 -0.28162757 0.094531409
0.028846154 -0.085586794 0.43544745 0.98093903 -0.017727153 -0.19350533 0.085574076
-0.028846154 -0.073642604 0.43482581 -0.91037744 -0.034595907 -0.41232991 0.078480452
0.028846158 -0.072843403 0.43636042 0.92375559 0.05881482 -0.37843949 0.082697362
-0.028846158 -0.065045029 0.43721709 -0.93435532 -0.056227349 -0.35187855 0.071299411
0.028846152 -0.066716678 0.43481919 0.89960605 0.030271538 -0.43565199 0.076122478
-0.028846152 -0.055487391 0.43646002 -0.9221009 -0.11258866 -0.37020791 0.079747893
0.028846158 -0.055673372 0.43608931 0.91346359 -0.054063953 -0.40331277 0.073077299
-0.028846154 -0.045369875 0.43459234 -0.95648783 -0.099540465 -0.27426767 0.078685895
0.028846156 -0.045391794 0.4371978 0.98388141 -0.024666216 -0.17711279 0.061144724
-0.028846158 -0.034315743 0.43442744 -0.97505057 0.20097177 -0.094269432 0.10487091
0.028846154 -0.033621747 0.43493369 -0.98947376 -0.14040005 0.035064805 0.0900269
-0.028846154 -0.02536455 0.43519309 0.97940135 -0.20183247 0.0060422574 0.12656248
-0.014569639 -0.020461179 0.43542627 0.52821642 0.8482607 0.037964642 0.27152732
-0.0059889257 -0.020461477 0.4357104 0.0038895737 0.99999142 0.0014434619 0.12427086
0.0056041107 -0.020460321 0.43450075 -0.011415298 0.99990159 -0.0081564831 0.11973549
0.014770785 -0.020433858 0.43545911 -0.23922318 -0.96248484 -0.12804389 0.26665205
0.028846156 -0.025200853 0.43618289 -0.98451644 -0.17333914 0.026094707 0.117993
-0.028846154 -0.015119346 0.43675417 0.9983483 -0.019557333 0.054019645 0.12418302
-0.01923077 -0.015257034 0.43479553 0.9717961 0.23048198 -0.049904678 0.21369179
0.019228665 -0.015673228 0.4343783 -0.92266244 0.38425699 -0.032257318 0.20496935
0.028846154 -0.01580758 0.4350304 -0.99964511 -0.026500484 0.0026925213 0.11071266
-0.028846156 -0.0058283624 0.43466598 0.99333304 0.10725848 -0.042250216 0.093795605
-0.01923077 -0.005493552 0.43554127 -0.9556666 -0.2885381 -0.05871255 0.13479882
0.019228686 -0.0067858016 0.43504724 -0.94709325 0.32030147 0.020523887 0.16748381
0.028846152 -0.0048216623 0.43462953 -0.99508703 0.09305007 -0.033814888 0.083908394
-0.028846152 0.0053108023 0.43461651 0.99985021 0.016592478 -0.0049335291 0.059289083
-0.019230774 0.0052352329 0.43516168 0.9953391 0.095107742 -0.015955774 0.061549406
0.01922868 0.0050883973 0.43483585 -0.9950518 0.098422535 -0.013598431 0.063790537
0.028846154 0.0038843907 0.43542036 -0.99885356 0.046768773 -0.010206576 0.056530196
-0.028846154 0.015465213 0.4354707 0.99954838 0.027884083 0.011199201 0.054968037
-0.01923077 0.014639297 0.4342165 0.9998644 0.016459113 0.00062769867 0.055968851
0.019228656 0.014711358 0.434102 -0.99994004 -0.0031926336 0.010483091 0.053613108
0.028846154 0.01408111 0.43563968 -0.99995714 -0.0017432864 0.0090834666 0.050967265
-0.028846154 0.02484124 0.43522695 0.99983037 -0.013278822 -0.012766434 0.059312146
-0.01923077 0.023896845 0.43509862 0.99750018 -0.069323339 0.013702312 0.073337115
0.019229449 0.025801376 0.43485662 -0.99361396 -0.1119133 0.014382371 0.087334454
0.028846154 0.024316603 0.43379405 -0.9998436 -0.0080912579 0.015726527 0.055221722
-0.028846158 0.035703793 0.43387431 0.99911243 -0.020840807 -0.036606021 0.088529155
-0.019230774 0.03461355 0.43507132 0.95348704 -0.29905957 0.037759233 0.14917268
0.019230718 0.034640681 0.43533596 -0.95137447 -0.3079108 -0.0088014351 0.16206619
0.02884615 0.035523795 0.43499485 -0.99256355 -0.11943405 0.023520151 0.10892372
-0.028846154 0.044786505 0.43463102 0.99953008 -0.026550567 -0.015319378 0.10572941
-0.017663036 0.046195887 0.4353728 0.98816895 -0.15017356 -0.031145932 0.23134589
-0.0045276303 0.049222067 0.43547076 0.033555299 -0.87616205 -0.48084736 0.16320473
0.0058205891 0.049221288 0.43666643 -0.09616483 -0.9594394 -0.26500636 0.20080161
0.016822575 0.04630455 0.434412 -0.97583002 -0.16957894 -0.13783598 0.21071075
0.02884615 0.043769747 0.43528044 -0.99910986 -0.012684681 0.040230136 0.10585983
-0.028846152 0.055165 0.43612951 0.99787116 0.0081731984 0.064701803 0.12420119
0.028846156 0.054122675 0.43449774 -0.99764127 -0.018418757 0.066126607 0.10873184
-0.02796158 0.064763717 0.43586373 -0.97169745 0.060626943 -0.22831674 0.11891957
0.027833015 0.065568991 0.43490353 0.98363537 0.04698639 -0.17393652 0.10433515
-0.025256734 0.075284846 0.43670353 -0.92997348 0.25135952 -0.26826799 0.043879539
0.025185291 0.07507249 0.43543875 0.91603965 0.25047213 -0.31326526 0.057744995
-0.023109941 0.08527305 0.43458602 -0.88691705 0.1532689 -0.43576002 0.037215028
0.023349445 0.08387278 0.43467993 0.89711165 0.16054919 -0.4116002 0.048739333
-0.022092989 0.094671324 0.43558007 -0.88619524 0.086870529 -0.45509505 0.051633373
-0.019635281 0.097024158 0.43006945 -0.7666052 0.092577793 -0.63540995 0.059873994
0.021646328 0.095458165 0.43375456 0.83873969 0.079007909 -0.53877026 0.05318439
-0.021492222 0.10401547 0.43531436 -0.83814007 0.072925873 -0.54055804 0.049601492
-0.019038562 0.10574995 0.43049678 -0.73940861 0.008769637 -0.67319989 0.06825728
0.018591966 0.10966963 0.43034473 0.74420381 -0.023964979 -0.66752255 0.062445659
0.021773232 0.10572719 0.43663809 0.92707568 -0.010121667 -0.37473762 0.041852299
-0.021615706 0.11292811 0.43578339 -0.87193316 0.010673872 -0.48950854 0.055785116
0.019146012 0.11341066 0.43072128 0.73713356 0.011321579 -0.67565221 0.064637899
0.021792287 0.11335575 0.43639117 0.87343693 -0.019165086 -0.4865599 0.054797642
-0.02245027 0.12444466 0.4353126 -0.83447027 -0.12198424 -0.53738177 0.051831968
-0.01871947 0.12001111 0.43019572 -0.69801444 -0.09214212 -0.71013069 0.056333072
0.018947396 0.12290199 0.43002316 0.72390717 -0.069154382 -0.68642271 0.057715885
0.022449959 0.12602639 0.43494466 0.80604798 -0.15448968 -0.57133144 0.043307494
-0.024572473 0.13610601 0.43521327 -0.83272475 -0.25368312 -0.49215272 0.03968817
0.023948397 0.13478431 0.43445635 0.81472349 -0.17037591 -0.55425411 0.036292721
-0.030940881 0.14870019 0.43994614 -0.92380345 -0.27479833 -0.26659521 0.025365259
-0.026567554 0.14510077 0.43407983 -0.80787498 -0.24896279 -0.53418672 0.040495597
0.026874125 0.14552619 0.4344002 0.81823546 -0.29163265 -0.49542019 0.034355972
-0.031363018 0.15624109 0.43471485 -0.88931721 -0.22518876 -0.39800102 0.021369915
-0.028522078 0.152482 0.43275434 -0.798724 -0.26606855 -0.53967351 0.032035634
0.028315529 0.1518088 0.43292308 0.80967015 -0.28048414 -0.51552194 0.031148836
0.031770941 0.15710096 0.43395701 0.85312051 -0.21502072 -0.4753435 0.018465459
-0.034098729 0.16443288 0.43481889 -0.85493565 -0.16012424 -0.49340171 0.016100591
0.033662442 0.16579153 0.43405169 0.87563229 -0.13761787 -0.46295723 0.01918605
-0.033546533 0.17436798 0.43389869 -0.87562853 -0.0045076511 -0.48296422 0.020734103
0.034136653 0.1757661 0.43519104 0.90445501 0.015307747 -0.42629436 0.022310793
-0.033826124 0.18415025 0.43456656 -0.86927307 0.2168335 -0.44423813 0.053241696
0.033179365 0.18439668 0.43323106 0.8578769 0.23023245 -0.45939109 0.048659284
-0.032988064 0.19458421 0.43294883 -0.72995901 0.56846577 -0.37948185 0.089419894
0.034039054 0.19596195 0.43531704 0.75039655 0.54406607 -0.37536249 0.071982197
-0.032162599 0.20072116 0.43713078 0.5849458 -0.77172649 0.24955279 0.074866682
-0.025675967 0.20072117 0.43610236 0.46132115 -0.82823092 0.31814516 0.083761007
-0.014403695 0.20072119 0.43636876 0.20710352 -0.95306236 0.22086245 0.054741874
-0.0058235801 0.2007212 0.43506038 0.093484521 -0.97251445 0.21325153 0.036108378
0.0035415946 0.20072116 0.4361963 -0.067654066 -0.97901922 0.1922088 0.033343818
0.014351398 0.20072116 0.43507794 -0.20512444 -0.94443631 0.25683478 0.060481973
0.027006427 0.20072119 0.43418249 -0.52835518 -0.79268575 0.30412182 0.085465766
0.031735778 0.20072116 0.43598443 -0.61209404 -0.73385346 0.29461828 0.081368946
-0.025883894 -0.11201801 0.44342548 0.61689723 0.60055035 -0.50870144 0.070235498
-0.016350979 -0.11297417 0.44239321 0.20685275 0.82484925 -0.52615172 0.082709402
-0.0048869234 -0.11258739 0.44282907 0.0031959482 0.8823365 -0.47060812 0.062559105
0.0062359152 -0.11202784 0.44352522 -0.080065839 0.84353983 -0.53106511 0.067002401
0.014967624 -0.11295811 0.4423795 -0.23818272 0.82435262 -0.51352865 0.096521989
0.025022069 -0.11212653 0.4430581 -0.49935681 0.68018293 -0.53665066 0.087950841
-0.027705859 -0.10626928 0.44576517 0.63951916 0.57862854 -0.50616628 0.075958885
-0.016519437 -0.10822024 0.4480781 0.38941568 0.73402107 -0.55638874 0.07803797
-0.004004484 -0.10876408 0.44743252 0.075645469 0.81830299 -0.56978768 0.039382767
0.0049825963 -0.10817896 0.44812715 -0.093901172 0.81604141 -0.57031465 0.044988111
0.015703544 -0.10838804 0.4478789 -0.26867041 0.76743597 -0.58211535 0.082221009
0.027954711 -0.10544839 0.44597298 -0.64402097 0.5738048 -0.50594956 0.077262521
-0.02884616 -0.093827479 0.4464356 0.90305102 0.33657721 -0.26686054 0.086756676
0.028846154 -0.095159538 0.44596478 -0.9022181 0.34485492 -0.25899336 0.081509851
-0.028846156 -0.085415974 0.4450694 0.9852941 0.16899931 -0.025193559 0.078363448
0.028846154 -0.084212504 0.44404277 -0.99208248 0.11979328 -0.03770842 0.046566084
-0.028846152 -0.07443133 0.4444285 -0.99200505 -0.027993586 -0.12305385 0.028290557
0.028846158 -0.074576266 0.44465384 0.99116927 -0.034888543 -0.12793042 0.028093584
-0.028846154 -0.064532593 0.443995 -0.98496228 -0.015740128 -0.1720511 0.027977396
0.028846154 -0.062712297 0.44605544 0.98604387 -0.017723026 -0.16553999 0.02782838
-0.028846152 -0.054657735 0.44424498 -0.98740721 -0.036804281 -0.15385835 0.028425913
0.028846156 -0.055101134 0.44479927 0.9866057 -0.026119208 -0.16101839 0.026196916
-0.028846154 -0.045055676 0.44615975 0.99782914 -0.062870979 0.019601535 0.021579131
0.028846154 -0.043979377 0.44508553 -0.9945842 -0.10226607 0.018548235 0.029464489
-0.028846154 -0.036096659 0.44350713 -0.97074932 0.2340291 -0.053629447 0.070691116
0.028846152 -0.034674104 0.44525367 -0.97224802 -0.23040403 0.040592648 0.078775384
-0.028846152 -0.024298437 0.44441444 0.98746091 -0.15785168 -0.0019324359 0.13261275
-0.015079202 -0.020457396 0.44458166 0.24152999 0.96992111 -0.030269863 0.26745784
-0.0047665644 -0.020469829 0.44429052 0.025709588 0.99949658 -0.018588251 0.11884173
0.0055000875 -0.02046987 0.44431067 -0.039558131 0.99841321 -0.040077452 0.11605523
0.014890362 -0.020448511 0.44489393 -0.60629189 0.79494447 -0.021759236 0.28579691
0.028846156 -0.026125211 0.44500542 -0.97759473 -0.21048453 -0.0022057742 0.11200184
-0.028846156 -0.015570705 0.44581264 0.9995808 -0.025879422 -0.012978561 0.12275596
-0.01923077 -0.014417537 0.4448263 0.96270531 0.26773366 -0.038951557 0.19300979
0.019229047 -0.015287049 0.4457972 -0.96646225 0.25480199 0.032041103 0.21973647
0.028846154 -0.016538845 0.44566217 -0.99937177 -0.0094102127 0.034168851 0.12365148
-0.028846154 -0.0046318704 0.44585794 0.99460238 0.10155872 0.021255832 0.088098362
-0.01923077 -0.0044207727 0.44501746 0.94811833 0.31747225 -0.016821772 0.12446832
0.019229027 -0.00632944 0.44517183 -0.98204702 0.18608586 -0.030914869 0.13557667
0.028846152 -0.0051263166 0.44669622 -0.99871969 0.043758743 0.025378818 0.077201381
-0.028846154 0.0043326658 0.44461307 0.99984455 0.0084522841 -0.015472651 0.056337539
-0.01923077 0.0056044334 0.44469038 0.99418807 0.10765683 -5.4472996e-05 0.06615977
0.019229013 0.0055068247 0.44471836 -0.99319559 0.11602359 -0.010047751 0.058985971
0.028846156 0.0060205008 0.44596398 -0.99954808 0.029125104 0.0074317227 0.056151174
-0.028846152 0.015197009 0.44550747 0.9998216 0.014540637 -0.012050263 0.054436721
-0.01923077 0.014675247 0.44491559 0.99959445 0.0029052424 -0.028326655 0.053191923
0.01922903 0.015051157 0.44526342 -0.99997884 0.0028091657 0.0058644377 0.058716085
0.028846154 0.014131538 0.44522065 -0.99979556 0.00030096405 0.020220466 0.054693561
-0.028846158 0.023772348 0.44463417 0.99998486 0.0016018219 -0.0052663879 0.055635173
-0.01923077 0.025153304 0.44350538 0.99509889 -0.092452869 0.035079513 0.077878527
0.019229189 0.024543269 0.44436961 -0.98947084 -0.13921221 0.039589994 0.07615611
0.028846154 0.02627142 0.44723481 -0.99997753 0.0031219022 0.0059421575 0.054173138
-0.02884615 0.035745014 0.44417968 0.99742544 -0.070055716 0.015319055 0.10498268
-0.01923077 0.034572009 0.44483039 0.96935463 -0.2437121 -0.030919991 0.1463971
0.019230641 0.036194716 0.44442156 -0.92249835 -0.38352129 -0.043683238 0.16575305
0.028846154 0.033817459 0.44550309 -0.99768764 -0.063010059 0.025477394 0.088825211
-0.028846156 0.044369712 0.44413394 0.99956667 0.0080739344 -0.028307045 0.11010609
-0.016742039 0.047021363 0.44562808 0.95433992 -0.29553583 -0.043519247 0.24985115
-0.0044242102 0.049216062 0.44490805 -0.059607729 -0.99788499 -0.02593215 0.1306242
0.0051676771 0.049216181 0.44469801 -0.086020142 -0.99226367 -0.089517504 0.18652354
0.016903998 0.047104184 0.44521284 -0.98699766 -0.16061896 -0.0060925558 0.2383723
0.028846156 0.044470422 0.44606715 -0.99901718 0.038515039 0.021937322 0.11011519
-0.028846154 0.054254912 0.44504622 0.99200535 0.12230325 0.031102411 0.11376338
0.028846156 0.054965761 0.44500086 -0.99850708 0.054618273 -0.00074081717 0.10640093
-0.027999228 0.066430196 0.44533437 -0.99415135 0.0054617175 -0.10785779 0.065809563
0.02807408 0.066077746 0.44559136 0.99301964 -0.049679894 -0.1069761 0.073525235
-0.02606925 0.074003331 0.4439258 -0.97597444 0.14544535 -0.16223276 0.025686426
0.025930077 0.074730396 0.44509286 0.97565573 0.14591362 -0.16372278 0.02566492
-0.024042172 0.085576735 0.44447723 -0.96685463 0.1392905 -0.21398658 0.037824433
0.024023456 0.085944459 0.44661912 0.98635942 0.12418742 -0.10803945 0.014505554
-0.023229716 0.094117403 0.44575614 -0.97759527 0.13394156 -0.16237916 0.024903324
0.023186846 0.094842643 0.44501939 0.97282398 0.1284972 -0.19261886 0.03063499
-0.022997452 0.10406607 0.4455657 -0.97416925 0.027684955 -0.22411592 0.036159415
0.022983294 0.10545047 0.44408557 0.96538413 -0.023862429 -0.25973824 0.036825236
-0.023665749 0.11514962 0.44443607 -0.96916419 -0.084906556 -0.23132576 0.032972299
0.023676904 0.11527774 0.44509369 0.97196519 -0.10976565 -0.20793061 0.032330863
-0.024943514 0.12430975 0.44446442 -0.948695 -0.21705148 -0.22992708 0.034346245
0.025158338 0.12530532 0.44553533 0.97305894 -0.19268997 -0.12659694 0.019406948
-0.027550051 0.13554502 0.44511876 -0.95390642 -0.25570378 -0.15709254 0.025402753
0.02715685 0.13415492 0.44442645 0.9588784 -0.20802966 -0.19306977 0.021034425
-0.031062255 0.14646317 0.44540325 -0.9402526 -0.28779653 -0.1819295 0.026117695
-0.029145623 0.14088348 0.4442547 -0.93665528 -0.28537846 -0.20306662 0.02583102
0.029506246 0.1421586 0.44554797 0.93146235 -0.29274195 -0.21605577 0.023553938
0.031510789 0.14726982 0.4458912 0.93522805 -0.29616576 -0.19399601 0.022868151
-0.034449153 0.15448517 0.44506636 -0.95125973 -0.24687354 -0.18481971 0.01999978
0.034587547 0.15480785 0.44408506 0.95107031 -0.23970962 -0.1949477 0.019315219
-0.037325248 0.16604246 0.44417396 -0.97587967 -0.13313028 -0.17301789 0.015594111
0.037550535 0.16539575 0.44582334 0.98221505 -0.14430724 -0.12012101 0.017162822
-0.037640002 0.1742015 0.44590214 -0.98996466 -0.027189881 -0.13867447 0.019393586
0.037785683 0.17512934 0.44708368 0.99267471 -0.0021851754 -0.12079771 0.021696784
-0.037384797 0.18542966 0.44439268 0.93616647 -0.32153082 0.14216296 0.068728991
0.03765621 0.1849401 0.44629338 -0.96701074 -0.22914213 0.11128447 0.053195618
-0.037438814 0.19591579 0.44513723 0.87312704 -0.46533698 0.14529529 0.065991737
0.037306175 0.19416931 0.4441123 -0.87501812 -0.43808606 0.2059707 0.06433621
-0.034030728 0.20072114 0.44481525 0.64522147 -0.74552447 0.16698083 0.08008226
-0.024731262 0.20072119 0.44475374 0.40957621 -0.90092868 0.14343917 0.06891188
-0.01444542 0.20072119 0.44595334 0.16970989 -0.98113775 0.092558958 0.03048091
-0.0050184182 0.20072122 0.44533801 -4.4195745e-05 -0.9999997 0.00080768915 0
0.0050293989 0.20072117 0.44476962 -0.020139042 -0.99935931 0.029586675 0.0028732205
0.014800346 0.20072119 0.44401509 -0.17606078 -0.97873527 0.10526136 0.036344871
0.026162414 0.2007212 0.44474825 -0.51835299 -0.84327036 0.14214528 0.072535485
0.033128735 0.20072117 0.44497213 -0.66907752 -0.73263019 0.12485294 0.088276856
-0.025277629 -0.10227981 0.45487109 0.58199775 0.59105462 -0.55850977 0.083135791
-0.015132869 -0.10306408 0.45409039 0.3315306 0.68026489 -0.65370268 0.056988932
-0.0039519756 -0.10312178 0.45404813 0.053417567 0.74595511 -0.66385049 0.011570641
0.0034491275 -0.10308079 0.45407706 -0.051425964 0.74700063 -0.66283137 0.010391276
0.013984421 -0.10338627 0.45375398 -0.29481262 0.7099371 -0.63958961 0.052333757
0.025710797 -0.10482297 0.45154253 -0.52199215 0.63660926 -0.56767315 0.065957308
-0.028162852 -0.094910331 0.45498148 0.76441747 0.4673301 -0.44414908 0.086200625
-0.015602875 -0.098910607 0.45835534 0.30699939 0.67564034 -0.67026973 0.044000637
-0.0066654976 -0.099012583 0.45825651 0.14119431 0.69505948 -0.70495152 0.024223633
0.0040828651 -0.098550819 0.45870405 -0.085192993 0.7034772 -0.70559335 0.012400405
0.01493939 -0.098283462 0.45896319 -0.32577923 0.66045165 -0.67651427 0.046359155
0.026829679 -0.096211404 0.45649624 -0.62227124 0.54569304 -0.56124651 0.073050201
-0.028846158 -0.084826849 0.45547891 0.87957448 0.29274446 -0.37503257 0.073401496
0.028846154 -0.084413834 0.45423988 -0.87147939 0.31934863 -0.37220973 0.0748742
-0.02884616 -0.076771595 0.45561093 0.95412546 0.21561238 -0.20773982 0.050994042
0.028846158 -0.073759057 0.45356753 -0.97477782 0.16188411 -0.15362869 0.032633234
-0.028846156 -0.064908646 0.45450333 0.99087924 0.072683401 -0.11346965 0.022680074
0.028846156 -0.065593526 0.45409805 -0.99030942 0.085103393 -0.10974819 0.019654417
-0.02884615 -0.055598032 0.45459166 0.99993104 0.0071239183 -0.0093370341 0.00038740115
0.028846152 -0.055199847 0.45574671 -0.99965054 0.011997202 -0.023555286 0.0009217991
-0.028846152 -0.045338862 0.45529178 0.99857146 -0.053430032 0.00054324552 0.014800338
0.028846158 -0.045113649 0.45517641 -0.99549574 -0.092348941 -0.021448076 0.021799011
-0.028846154 -0.035561215 0.45504442 0.96747953 -0.23978461 -0.080541074 0.076727033
0.028846152 -0.035184234 0.45638248 -0.9665001 -0.25642926 -0.011023891 0.076154254
-0.028846156 -0.024531741 0.45375958 0.98022121 -0.19573207 0.029246951 0.12107623
-0.014386018 -0.020478735 0.4534696 0.95537412 -0.29398093 -0.02890595 0.25679553
-0.0056256992 -0.020481553 0.45634207 0.074798115 0.99695897 0.021861833 0.13033161
0.0040227138 -0.020480173 0.45489874 -0.017460855 0.99934953 0.031553824 0.10664092
0.015753763 -0.020445134 0.4552812 0.99304748 0.10215157 -0.058497533 0.26028714
0.02884615 -0.025872827 0.4536837 -0.97147048 -0.23243409 -0.047110945 0.10528953
-0.028846154 -0.016594028 0.45364201 0.998326 -0.056782078 -0.010997289 0.12463265
-0.01923077 -0.016009528 0.45567501 0.97796893 0.20823455 -0.014667792 0.21055949
0.019229356 -0.014864087 0.45497778 -0.95869327 0.28442967 0.0026553615 0.2019812
0.028846152 -0.014009514 0.45617396 -0.99861532 0.04345192 0.029652528 0.11676106
-0.028846152 -0.0056118323 0.45351872 0.99408942 0.10778015 0.013030923 0.084494285
-0.01923077 -0.0054741898 0.4545871 0.96772718 0.25078839 -0.024688009 0.11911538
0.019229321 -0.005046139 0.45395085 -0.95630044 0.29223669 0.0093349693 0.123843
0.028846156 -0.0037642717 0.4564434 -0.99418813 0.10710185 -0.010911252 0.087934121
-0.028846152 0.0049517085 0.45565742 0.99996442 0.00084440503 -0.0083889635 0.056666881
-0.019230772 0.005302473 0.45469972 0.99607027 0.085157156 -0.024338279 0.063452587
0.019229354 0.0047368924 0.45489815 -0.9961825 0.079015337 0.037109442 0.066703357
0.028846152 0.0046476377 0.45491934 -0.99940807 0.031720553 -0.013315788 0.058259882
-0.028846154 0.015428586 0.45517093 0.99998295 -0.0056669009 -0.0013845712 0.05483906
-0.01923077 0.01590695 0.45330155 0.99936694 0.0057360544 0.035110265 0.054440502
0.019229343 0.014468873 0.45457909 -0.99954009 0.0084497305 0.029122232 0.052461397
0.028846154 0.014525266 0.45567068 -0.99990702 -0.013111432 -0.0037310121 0.054022908
-0.028846154 0.024206184 0.45488113 0.99960107 -0.026433116 0.0099477563 0.05976969
-0.01923077 0.024328744 0.45616236 0.99675769 -0.080149591 -0.0070732981 0.075427659
0.019229366 0.025747959 0.45524913 -0.98615384 -0.16289161 0.031096194 0.088348933
0.028846152 0.024451375 0.45597446 -0.99899244 -0.040234461 0.019879961 0.059416413
-0.028846156 0.035344012 0.45396781 0.99243623 -0.11390379 -0.045784902 0.10693244
-0.01923077 0.034416549 0.45575619 0.97175574 -0.23533177 0.017600218 0.13492483
0.019230038 0.034217201 0.45404363 -0.95995134 -0.27987555 0.012771527 0.14102101
0.02884615 0.035673279 0.45492077 -0.99720013 -0.071624123 -0.021490803 0.10879105
-0.028846152 0.044997063 0.45525977 0.99954659 0.0035460524 -0.029900337 0.11341896
-0.015799278 0.047695044 0.4548319 0.92788517 -0.37271157 -0.010739104 0.25850898
-0.0044363523 0.049209431 0.45534688 -0.044058457 -0.99872696 0.024563098 0.13310426
0.0053445054 0.049208652 0.45652604 0.022366272 -0.99973482 -0.0054841228 0.15731926
0.017209847 0.046623398 0.45510364 -0.97874868 -0.20408081 0.020054156 0.24446435
0.028846156 0.045411833 0.45388722 -0.9990598 0.041234173 0.013388495 0.12149633
-0.028846152 0.05493819 0.45520949 0.99604267 0.087230749 -0.017020751 0.11091872
0.028846154 0.055172782 0.45414791 -0.99665231 0.080935784 0.011553247 0.11807253
-0.028167812 0.065560333 0.45458996 0.99639654 0.0729286 -0.043305375 0.071721889
0.028193021 0.065437727 0.45515832 -0.99365371 0.046420012 -0.10245727 0.078046873
-0.026062436 0.074249305 0.4550862 0.99312395 -0.11625255 -0.013790129 0.014727838
0.025963483 0.074733607 0.45559412 -0.99160707 -0.12573476 -0.030104399 0.013903507
-0.024221009 0.084495336 0.45471907 0.98664051 -0.16181174 -0.018906228 0.005310134
0.024256306 0.084263362 0.45553023 -0.98775345 -0.14785898 -0.049806871 0.0057816445
-0.023216255 0.094758436 0.45468611 0.99454337 -0.10419528 -0.0051813689 0.012010955
0.023169534 0.095137753 0.455917 -0.99605036 -0.077586651 -0.043174349 0.015267121
-0.023048114 0.10365541 0.45446041 0.99982905 -0.018269025 -0.0028558143 0.013798909
0.023091925 0.10522412 0.45543858 -0.99837106 0.00032024441 -0.05705284 0.012477614
-0.023765398 0.11530483 0.45407847 0.99203688 0.12028778 -0.037331656 0.02288194
0.023834445 0.11600477 0.4544265 -0.99280632 0.11917727 -0.011508504 0.019817574
-0.025183452 0.12498704 0.45639408 0.97659212 0.19537976 -0.089969732 0.019186674
0.025205545 0.12510756 0.45519522 -0.9775762 0.20208482 -0.059216913 0.017791677
-0.027645918 0.13555509 0.45497724 0.9650743 0.24750701 -0.08585991 0.02025727
0.027391305 0.13466078 0.45444444 -0.9718802 0.23039769 -0.048639897 0.024802065
-0.031546995 0.14729927 0.45583212 0.95390582 0.28119957 -0.10483579 0.019760169
-0.029157452 0.14059356 0.45487416 0.95949376 0.27728036 -0.049874205 0.023271831
0.029379535 0.14127369 0.45604348 -0.95599711 0.2868742 -0.061422594 0.022430426
0.031598069 0.14743318 0.45557305 -0.95003396 0.2929914 -0.10766324 0.022681806
-0.034929328 0.15517285 0.45516431 0.96219796 0.24937929 -0.10947683 0.017491337
0.035325918 0.15604591 0.45466983 -0.97175497 0.22241311 -0.07889694 0.01631791
-0.037803266 0.16496174 0.45642352 0.98088056 0.15276577 -0.12056501 0.01743787
0.037803862 0.16333605 0.45552152 -0.98245066 0.17412668 -0.066862889 0.016792258
-0.038028654 0.17564568 0.45491776 0.99712563 -0.029862143 -0.069633022 0.02202544
0.037888914 0.17417304 0.456292 -0.99736571 0.030387461 -0.065865085 0.018236795
-0.037842557 0.18467337 0.45675591 0.9648239 -0.22274841 -0.13963513 0.05147285
0.037981186 0.18394874 0.45521 -0.97427064 -0.21407691 -0.070482992 0.047121625
-0.038037937 0.19546491 0.45432276 0.86366469 -0.50367826 -0.01978422 0.073597603
0.037897293 0.19439557 0.45503071 -0.87822503 -0.47363698 -0.066248238 0.064904943
-0.033512875 0.20072117 0.45524159 0.64780432 -0.76050526 -0.044512264 0.084894001
-0.024371164 0.20072114 0.45402214 0.38653117 -0.92210847 -0.017595792 0.058739129
-0.014675464 0.2007212 0.45580915 0.18633993 -0.981655 -0.040384009 0.031695563
-0.0045322133 0.20072116 0.4546521 0.00041944414 -0.99999964 -0.00075424416 0
0.0049828719 0.20072117 0.45437655 -7.7470337e-05 -1 -0.00018848646 0
0.015265182 0.20072119 0.45557317 -0.19132288 -0.98070568 -0.04014999 0.034031428
0.026415391 0.20072116 0.45504281 -0.53813761 -0.84153163 -0.047249272 0.071646646
0.034321547 0.20072114 0.45608801 -0.67688346 -0.72743303 -0.11256062 0.082534954
-0.025325336 -0.093579918 0.46306282 0.67822266 0.51650369 -0.52272171 0.070897549
-0.015247494 -0.093563445 0.46353793 0.2478947 0.65161717 -0.71689826 0.033875361
-0.0045330962 -0.094427802 0.46270022 0.091721728 0.69516814 -0.71297151 0.012528162
0.0047315485 -0.093163945 0.46392521 -0.067715339 0.67207623 -0.73737931 0.010060622
0.015001058 -0.093557246 0.46353528 -0.26409724 0.65250915 -0.71027076 0.038001176
0.025137754 -0.093197562 0.46381536 -0.626293 0.53246009 -0.56942362 0.076105744
-0.027808888 -0.086230218 0.46604219 0.6712206 0.46177256 -0.57985258 0.07222601
-0.014220864 -0.087876745 0.468557 0.2585364 0.62064254 -0.74024439 0.038652539
-0.0055247792 -0.087945931 0.46850228 0.12239603 0.63975394 -0.75877142 0.020509345
0.0059527922 -0.088647462 0.46794787 -0.093871333 0.64865994 -0.75526714 0.013053035
0.014542338 -0.08796417 0.46848789 -0.28131366 0.63693148 -0.71776104 0.045025259
0.027857954 -0.085558616 0.46634486 -0.66763973 0.45751259 -0.5873155 0.072238803
-0.028846152 -0.074853145 0.46528485 0.89753675 0.26263368 -0.35419104 0.073566034
0.028846154 -0.074464791 0.46465808 -0.87141246 0.32122579 -0.37074837 0.077511758
-0.028846154 -0.065604739 0.46475837 0.95291406 0.17916754 -0.24465041 0.054015812
0.028846154 -0.065589823 0.46549845 -0.93538642 0.20989108 -0.28460136 0.061872434
-0.02884616 -0.056532986 0.46593145 0.9794805 0.10724773 -0.17063372 0.029305877
0.028846154 -0.056078535 0.46616396 -0.9778505 0.088316962 -0.18975934 0.03110878
-0.028846152 -0.045438394 0.46714905 0.99200565 0.016301349 -0.12513624 0.034728341
0.028846152 -0.044225339 0.46484154 -0.99710089 -0.072651424 -0.022617023 0.021003574
-0.02884615 -0.035213314 0.46476179 0.9628126 -0.26999563 0.0097075198 0.080078527
0.028846152 -0.034514859 0.46509519 -0.96955633 -0.24347578 -0.026077222 0.08191669
-0.028846156 -0.025658781 0.46554801 0.97626466 -0.21652505 -0.0049344022 0.12638478
-0.014236482 -0.020490095 0.46514255 -0.32046148 -0.92437595 -0.20696259 0.27183697
-0.0048352359 -0.020489095 0.46409231 -0.0098268567 0.99984568 -0.014565892 0.12597832
0.0061593866 -0.020490412 0.46541616 -0.089957573 0.99588907 -0.010612434 0.14407223
0.015256631 -0.020462349 0.46539396 0.98712826 0.1290884 -0.094414085 0.28451788
0.028846156 -0.024011984 0.4644092 -0.99117422 -0.13251066 -0.0038456195 0.11594414
-0.028846154 -0.014365421 0.46601006 0.99787164 0.063024193 -0.016739631 0.11963638
-0.01923077 -0.014422235 0.465933 0.95444131 0.29507902 0.044387516 0.20701933
0.019229727 -0.015261095 0.46593487 -0.93073499 0.36126503 -0.056744877 0.21702281
0.028846154 -0.015858432 0.46522674 -0.99993598 -0.011128332 -0.0020474175 0.12841335
-0.028846152 -0.0050397795 0.46498427 0.99294204 0.11800085 0.011914589 0.093357325
-0.01923077 -0.003946411 0.46475595 0.99266899 0.1206608 0.0070261071 0.093763314
0.019229738 -0.0057940795 0.46636274 -0.94416231 0.3294639 0.0033302251 0.13483502
0.028846152 -0.0049622091 0.46545821 -0.99526632 0.087422036 -0.042453807 0.091859587
-0.028846154 0.0056155031 0.46474829 0.99913955 0.041404255 -0.002398778 0.057160567
-0.019230772 0.0048718769 0.46441177 0.99082077 0.13308802 0.023705024 0.073615126
0.019229662 0.0054720705 0.46412072 -0.99519849 0.093703322 0.028276995 0.061860137
0.028846154 0.0045685777 0.46394935 -0.99933624 0.036427703 0.00013157169 0.055864871
-0.02884615 0.014797869 0.46555781 0.99985671 0.011010882 -0.012858311 0.052455485
-0.019230772 0.013616111 0.46632284 1 0.00010380693 -1.0545055e-05 0.054455135
0.019229712 0.016361166 0.46552774 -0.99999833 0.00095721229 0.0015471195 0.056609448
0.028846152 0.015874436 0.46495298 -0.99999273 0.0024338125 -0.0029382454 0.05424355
-0.028846154 0.025677269 0.46405172 0.99973351 0.014964069 -0.017579084 0.059490226
-0.019230772 0.02533567 0.46581253 0.98979998 -0.13962184 0.028314734 0.08714202
0.019229693 0.024764953 0.46498895 -0.98483723 -0.17302734 -0.012531211 0.089985289
0.028846156 0.025768405 0.46382833 -0.99978119 -0.015204442 -0.014365341 0.065748088
-0.028846154 0.03462996 0.46567401 0.99556744 -0.071689501 -0.060877386 0.09298683
-0.019230772 0.03526587 0.46544838 0.91150254 -0.4078033 -0.053476345 0.16635132
0.019229881 0.034599293 0.46409708 -0.93740422 -0.34558997 -0.042904731 0.16230261
0.028846158 0.036153838 0.46456385 -0.99495864 -0.092737004 -0.038172353 0.10455628
-0.028846154 0.044637777 0.46369252 0.99857146 -0.012617228 -0.051920615 0.1033547
-0.017250055 0.046371315 0.4657779 0.90602124 -0.42298099 0.014580457 0.23108347
-0.0055646086 0.049203917 0.46401486 0.022497198 -0.99575591 0.089241542 0.175183
0.0052665961 0.049202871 0.4656224 -0.017144112 0.97479045 -0.22246273 0.18762678
0.016496649 0.046532493 0.46470773 -0.91046631 -0.41320533 -0.017675094 0.23862232
0.028846158 0.047162753 0.46490237 -0.99502677 0.03702477 -0.092471406 0.0989042
-0.028846154 0.054410759 0.46641663 0.99731141 0.0035277235 -0.0731951 0.098573565
0.028846154 0.056160267 0.46595591 -0.99291587 0.093438759 -0.073397793 0.11119092
-0.028252745 0.063943341 0.4654026 0.99075049 0.06522689 -0.11899129 0.10095384
0.027895426 0.06572327 0.46426892 -0.99029601 0.055473629 -0.12742224 0.096921615
-0.025212815 0.076021902 0.46633983 0.95794296 -0.18098168 -0.22269019 0.015758887
0.025271665 0.076114923 0.46540675 -0.96341163 -0.16881785 -0.2081791 0.013845772
-0.023835663 0.083960317 0.46537963 0.96200591 -0.16294789 -0.21907231 0.013427055
0.023574052 0.08590582 0.46512595 -0.95172071 -0.14341727 -0.27140212 0.017429003
-0.022665972 0.095261782 0.46475613 0.95836794 -0.063920647 -0.27828923 0.027145229
0.022639727 0.095386766 0.4649967 -0.9510287 -0.070201442 -0.30102506 0.022244155
-0.022170736 0.10510421 0.4655858 0.93633223 -0.013035129 -0.35087338 0.02748769
0.022285791 0.10447454 0.46521845 -0.95355624 -0.059337284 -0.29531279 0.023932422
-0.022809546 0.11519708 0.46501493 0.93606204 0.089858219 -0.34016663 0.029412854
0.022929175 0.11455046 0.4641667 -0.94614035 0.054370645 -0.31915873 0.029850313
-0.02399067 0.12504004 0.46478984 0.9240002 0.13870038 -0.35635069 0.031210756
0.02345174 0.12452707 0.46602139 -0.89861089 0.13717298 -0.4167518 0.028205577
-0.025993139 0.13476789 0.46497503 0.91236049 0.22040758 -0.34499112 0.031544887
0.026432605 0.1359795 0.46458194 -0.88737774 0.25273487 -0.38559803 0.023808343
-0.030403523 0.14667498 0.46296325 0.91883308 0.28864959 -0.26912302 0.023950377
-0.028065117 0.14371175 0.46592262 0.90933084 0.25409311 -0.32947543 0.01939841
0.028395686 0.14466664 0.46573469 -0.89142364 0.26836812 -0.36516079 0.017021628
0.030842489 0.14616019 0.46227002 -0.91949338 0.27562049 -0.2802949 0.024722366
-0.033609271 0.15511726 0.46460333 0.9173395 0.2639223 -0.29804912 0.021309387
-0.028687509 0.15054375 0.46955431 0.84500462 0.28142512 -0.45471641 0.031169219
0.029968729 0.1523353 0.46853077 -0.87554044 0.24253663 -0.41785747 0.017575871
0.033204488 0.15458275 0.46443236 -0.89708012 0.27476555 -0.3460508 0.016481539
-0.03590706 0.16382766 0.46501192 0.93554825 0.18047756 -0.3036072 0.018575346
0.035891101 0.16444145 0.46475717 -0.92966366 0.1374274 -0.34181747 0.01338846
-0.035957821 0.17444846 0.46465367 0.94127733 0.025977906 -0.33663356 0.01530286
0.035912942 0.17638828 0.46470046 -0.95175427 -0.03409148 -0.30496156 0.022029594
-0.036080185 0.18520945 0.46447769 0.91165507 -0.2454925 -0.32957315 0.059262812
0.035754405 0.18565775 0.46514767 -0.90205979 -0.25330743 -0.34946153 0.051376011
-0.036104564 0.19445282 0.464306 0.83323252 -0.49862072 -0.23895794 0.084902436
0.035706852 0.19455437 0.46535566 -0.85380626 -0.40125194 -0.33168027 0.06091116
-0.032364223 0.20072114 0.46351147 0.59130067 -0.76969749 -0.24068503 0.084574379
-0.025500035 0.2007212 0.46504462 0.52832109 -0.81448889 -0.23975956 0.082941569
-0.014511462 0.20072119 0.4647297 0.21847871 -0.96238363 -0.16150825 0.046353452
-0.005674866 0.20072117 0.46499136 0.048141621 -0.98281306 -0.17821579 0.030491935
0.0055637187 0.20072122 0.46415982 -0.043241773 -0.9917472 -0.12069677 0.016430408
0.015565642 0.20072116 0.46521413 -0.22243425 -0.95852351 -0.17820129 0.048313849
0.025899917 0.20072119 0.464093 -0.49157274 -0.841295 -0.22489798 0.073857285
0.03283124 0.20072116 0.46458936 -0.61091614 -0.75774384 -0.22935934 0.075191841
-0.02511595 -0.082768418 0.47233102 0.65261507 0.46339521 -0.59946507 0.06574104
-0.013187799 -0.082184449 0.47305575 0.23926209 0.5851981 -0.7747882 0.044524282
-0.0049659931 -0.08221174 0.47303417 0.095419489 0.61070657 -0.78608692 0.01205547
0.0055284244 -0.084051788 0.47157991 -0.095379122 0.63587862 -0.76587284 0.013869349
0.014214503 -0.082483374 0.47281948 -0.29452097 0.59195095 -0.75023431 0.054821644
0.025302909 -0.083480962 0.47203112 -0.67644614 0.46804416 -0.56864327 0.066531904
-0.026574187 -0.07459601 0.47643247 0.69397682 0.41733974 -0.58670586 0.074034065
-0.015642833 -0.0766358 0.47720042 0.3581889 0.56324208 -0.7446202 0.056587268
-0.004794436 -0.07654012 0.47729111 0.10422646 0.56395102 -0.81920451 0.015946351
0.0046433527 -0.078023143 0.47629708 -0.11363392 0.57690537 -0.80886811 0.018907042
0.015214413 -0.076210141 0.47751808 -0.33604908 0.54961163 -0.76485157 0.057519656
0.025863826 -0.075197838 0.47600582 -0.67159224 0.40775108 -0.61862993 0.072861604
-0.028846152 -0.064629771 0.47443759 0.8059203 0.32125735 -0.49727881 0.078567252
0.028846152 -0.064969152 0.47348574 -0.8454833 0.30587986 -0.43771631 0.07950224
-0.028846156 -0.054571461 0.47560635 0.89299655 0.18339063 -0.41100502 0.072413854
0.028846154 -0.054481018 0.47578499 -0.88112622 0.2138561 -0.42176059 0.074412845
-0.028846152 -0.043865982 0.4765178 0.9633773 -0.038338352 -0.26539457 0.07052923
0.028846152 -0.04508457 0.47441375 -0.97013855 0.045866225 -0.23817512 0.066098735
-0.02884615 -0.034985058 0.47409827 0.97638023 -0.1672003 -0.13684195 0.088507451
