# .PCD v0.7 - Point Cloud Data file format
VERSION 0.7
FIELDS x y z normal_x normal_y normal_z curvature
SIZE 4 4 4 4 4 4 4
TYPE F F F F F F F
COUNT 1 1 1 1 1 1 1
WIDTH 567
HEIGHT 1
VIEWPOINT 0 0 0 1 0 0 0
POINTS 567
DATA ascii
-0.050938908 -0.3458131 0.0049454239 0.98916161 -0.024732931 -0.14473268 0.021620704
-0.049987812 -0.34038752 0.0099163651 0.95574498 -0.03527255 -0.2920742 0.020259589
0.049980517 -0.34850436 0.0090374481 -0.97506988 0.005785712 -0.22182237 0.015938381
0.050617408 -0.34545219 0.0033121938 -0.99858063 0.013257793 -0.05158449 0.02275444
-0.050571274 -0.33388624 0.0044287923 0.99351764 -0.0029342733 -0.11364024 0.025868025
-0.049835078 -0.33341998 0.0096306931 0.96878368 -0.01913264 -0.24716824 0.019856179
0.050293256 -0.3339076 0.0064978343 -0.98477507 0.0049307081 -0.1737638 0.01536748
-0.050387252 -0.32350245 0.0026862882 0.99760431 -0.033405758 -0.060578052 0.025973499
-0.049668904 -0.32613724 0.0093520135 0.96257013 -0.056150775 -0.26515254 0.019860134
0.049740534 -0.32023543 0.0097377831 -0.96740347 -0.00056668778 -0.25323945 0.019917356
0.050484098 -0.3263447 0.0047278339 -0.99300832 -0.014491023 -0.11715171 0.022617685
-0.050093412 -0.31351143 0.0019620173 0.9968363 -0.068899788 -0.039625622 0.02510036
-0.049532 -0.31492531 0.0076589491 0.97388923 -0.058656484 -0.21931505 0.019374132
0.049828947 -0.31913713 0.0094555337 -0.96712053 0.0011463739 -0.25431582 0.019893853
0.050412562 -0.31464651 0.0051423251 -0.98930758 -0.00069587503 -0.14584221 0.021040108
-0.050002132 -0.30861923 5.4458855e-05 0.99728572 -0.063210368 0.037757389 0.017614644
-0.049378123 -0.30553651 0.005963766 0.99239445 -0.061748188 -0.10649149 0.022279106
0.049862225 -0.30222467 0.0091893701 -0.97338361 -0.0048924773 -0.22912975 0.018187616
0.050459441 -0.30531138 0.0043416922 -0.99341464 -0.0054414221 -0.11444531 0.023162413
-0.049227044 -0.2950944 0.0038238782 0.99129266 -0.074215695 -0.10877044 0.02081695
0.049894076 -0.29559094 0.0090241833 -0.96272957 -0.0071995542 -0.27036998 0.01929698
0.050395995 -0.29478154 0.0047044228 -0.98997724 0.004897411 -0.141142 0.020379489
-0.048685551 -0.28409594 0.0053789145 0.9954915 -0.049662624 -0.080810212 0.022444464
0.049964353 -0.28225243 0.0084285391 -0.9673627 0.0013219146 -0.25339252 0.020146364
0.050512668 -0.28467038 0.0030465217 -0.99587554 -0.0085281674 -0.090328425 0.028567033
-0.048394077 -0.27610761 0.0054116067 0.9942072 -0.055936579 -0.091777779 0.019270215
0.049930535 -0.27452931 0.0085182572 -0.97251147 -0.017428171 -0.23220208 0.018776471
0.050460577 -0.27340791 0.0034505399 -0.99768025 -0.0057443487 -0.067832261 0.023933113
-0.048063066 -0.26488912 0.0051700487 0.99529374 -0.025957603 -0.093362421 0.020215718
0.049633943 -0.26903275 0.0095689315 -0.966883 -0.0031012686 -0.25520134 0.019053468
0.050487239 -0.26512077 0.002740209 -0.99932992 -0.0040047695 -0.036381867 0.021463497
-0.047677334 -0.25737602 0.0065559489 0.98464668 -0.048131034 -0.16779244 0.02011124
0.049776684 -0.25430101 0.0083060944 -0.96298754 -0.017105447 -0.26900271 0.018083228
0.050304178 -0.25459725 0.0036871666 -0.99592912 0.0030918024 -0.090087235 0.021014439
-0.047558963 -0.24526779 0.0040726475 0.99667543 -0.037312381 -0.072428636 0.019203288
0.049668003 -0.24223451 0.0085180951 -0.96830606 -0.0043778103 -0.24972801 0.019392302
0.050324388 -0.2446257 0.0026209503 -0.99894935 -0.011046214 -0.044476658 0.026038904
-0.047295604 -0.23652954 0.0038398972 0.9953441 -0.055262968 -0.078968748 0.017887035
0.049598224 -0.23463564 0.0084422529 -0.97217596 0.019372592 -0.23344943 0.01844056
0.05028918 -0.23529053 0.002241787 -0.99919075 0.0088952575 -0.039226502 0.022340061
-0.046992034 -0.22616357 0.0035051659 0.99704748 -0.021014078 -0.073855519 0.017903745
0.049718738 -0.22583391 0.0067570042 -0.98772854 -0.020888465 -0.15477702 0.020072281
0.050266858 -0.22515994 0.00085337606 -0.99991572 -0.012947302 0.00095316116 0.019342957
-0.046277251 -0.21450509 0.0064009675 0.9795748 -0.030937396 -0.19868591 0.0217593
0.049598075 -0.21408258 0.0067490647 -0.98150831 -0.020559238 -0.1903123 0.023341006
0.050084811 -0.21478447 0.0023392092 -0.99700034 -0.03465331 -0.069205895 0.024332972
-0.046290971 -0.2053328 0.0037319961 0.99450457 -0.013321589 -0.10384187 0.014459613
0.049532454 -0.20579697 0.0064603989 -0.98082763 -0.029583193 -0.19261873 0.016168555
0.050098695 -0.20654321 0.0013906695 -0.99778974 -0.049382377 -0.044464171 0.021435156
-0.045962304 -0.19609624 0.0040781121 0.98947197 -0.027725384 -0.14204387 0.012805525
0.049537256 -0.19497031 0.0050280439 -0.99269468 -0.040603302 -0.11361585 0.022472931
-0.045384061 -0.18469457 0.0062668533 0.98815036 -0.036370914 -0.14911744 0.013151062
0.049347121 -0.18550494 0.0054918816 -0.99301523 -0.054519534 -0.10463428 0.020645993
-0.045062065 -0.17345217 0.0060527711 0.98329318 -0.031069729 -0.17935766 0.019157249
0.049226489 -0.17409897 0.004961269 -0.99655867 0.00091586105 -0.082885765 0.022465775
-0.044818439 -0.16422161 0.0058074575 0.98898971 -0.032340668 -0.14440744 0.020773493
0.048815008 -0.16571373 0.007255157 -0.97842318 -0.016346375 -0.20596349 0.018884448
-0.044421908 -0.15290248 0.0064717107 0.98963648 -0.015285587 -0.14277972 0.02231436
0.048743315 -0.15466809 0.0066442853 -0.99089533 -0.023451449 -0.13257599 0.018894311
-0.044394996 -0.1440403 0.0041270829 0.99359864 -0.047426049 -0.1025302 0.017967733
0.049010713 -0.14447121 0.0026037209 -0.99623942 -0.039120439 -0.077308349 0.021070108
-0.043786786 -0.1354128 0.0073308921 0.98884159 -0.047844004 -0.14107877 0.018599691
0.048669089 -0.13436644 0.0039037957 -0.99726433 -0.012086231 -0.072923385 0.021126289
-0.043817446 -0.12357204 0.0041055041 0.99491215 -0.032266021 -0.095439196 0.017141264
0.04821448 -0.12429101 0.0055945716 -0.99124438 -0.021695103 -0.13024558 0.023561716
-0.043558206 -0.11506066 0.0044243215 0.99271506 -0.041011777 -0.11329101 0.016467255
0.047863271 -0.11346092 0.0069477507 -0.98839772 -0.00041045781 -0.15188737 0.021416899
-0.04325695 -0.10493875 0.0046881712 0.9965179 -0.006332126 -0.083139002 0.01223814
0.047805622 -0.10511374 0.0059838658 -0.99271542 -0.058435567 -0.10536345 0.018870911
-0.042769715 -0.094039559 0.0061070118 0.99313056 -0.029315202 -0.11327998 0.016067954
0.047688842 -0.093208 0.0043634153 -0.9966259 0.0054915678 -0.081894688 0.019727023
-0.042608786 -0.084512629 0.0053560538 0.99393404 -0.00059483212 -0.10997634 0.015833639
0.047439918 -0.083920397 0.0048541552 -0.99505687 -0.033979576 -0.093312792 0.020225978
-0.042530645 -0.075707465 0.0041857534 0.99631178 -0.012054357 -0.084955648 0.018902341
0.047351401 -0.074364185 0.0032392337 -0.9968341 -0.024666354 -0.07558728 0.018999809
-0.042094689 -0.064064577 0.0050678318 0.99229515 -0.01990453 -0.12228706 0.021601714
0.046845049 -0.064960219 0.0055533419 -0.99159867 -0.054619383 -0.11725546 0.022169054
-0.041977461 -0.054872319 0.0040583233 0.99012381 -0.038702149 -0.134748 0.017184835
0.046685088 -0.055355944 0.0044797128 -0.99685776 -0.035666745 -0.070728689 0.017893244
-0.041611735 -0.044933811 0.0051892614 0.99235803 -0.012809136 -0.12272565 0.021972798
0.046290223 -0.044256248 0.005146944 -0.99566215 0.002107522 -0.093018793 0.020729795
-0.041326676 -0.035870507 0.0056540631 0.99018037 -0.02808547 -0.13694507 0.021072716
0.04581596 -0.034505371 0.0066510956 -0.98422235 -0.035121206 -0.17341512 0.02156968
-0.041150376 -0.023223428 0.0044760061 0.99104458 -0.012952171 -0.13290155 0.021357456
0.045879219 -0.026354909 0.0042817187 -0.99583352 -0.054360896 -0.073215634 0.01388008
-0.04077756 -0.015514246 0.0059215156 0.98285902 -0.019250115 -0.18335107 0.016044676
0.045510124 -0.016043589 0.0045299903 -0.99508917 -0.04628497 -0.087494165 0.016510727
-0.040670551 -0.0063299313 0.0051446324 0.99037683 -0.029918121 -0.13512455 0.01972576
0.045127321 -0.0047126352 0.004600192 -0.99242991 -0.053264957 -0.11066031 0.018279919
-0.040508114 0.0060927556 0.0040658475 0.99324906 -0.0012246007 -0.1159948 0.021230878
-0.039632205 0.0085006123 0.0097902119 0.96440798 0.0060725543 -0.26434898 0.018828306
0.044676822 0.0044376948 0.0055593238 -0.99170911 -0.012980287 -0.12784538 0.019979557
-0.040398587 0.015969507 0.0026885488 0.99557042 0.013894103 -0.092986561 0.026191946
0.044484634 0.015388761 0.0039968379 -0.994874 -0.026001416 -0.097722098 0.018707078
-0.040196866 0.024080094 0.0029477556 0.99731916 -0.010551451 -0.072409496 0.025760319
-0.039667524 0.024965636 0.0075940471 0.97495699 -0.010415081 -0.22214971 0.019842729
0.044100557 0.025498787 0.0042984411 -0.99692112 -0.02936768 -0.072703227 0.014012723
-0.040071946 0.033575773 0.0021758832 0.99745113 -0.069018722 -0.018103397 0.022863353
-0.039741136 0.035043791 0.0050045266 0.98816568 -0.049030002 -0.14534329 0.022608439
0.043701012 0.035095777 0.0048439787 -0.99428123 -0.01264386 -0.10604243 0.016992213
-0.040003784 0.042842276 0.00052554422 0.99832928 -0.057665471 -0.0036544686 0.018193219
-0.039641652 0.043807413 0.0041968427 0.99387085 -0.064401582 -0.089850686 0.024710292
0.04327672 0.045769621 0.0048976289 -0.9974345 -0.012982716 -0.070398308 0.013528245
-0.039400093 0.05407339 0.0043435921 0.99496394 -0.059811585 -0.080432117 0.023493787
0.042837277 0.055217534 0.0055169486 -0.99485165 -0.047981109 -0.089263842 0.012941967
-0.038966343 0.066434763 0.0057556587 0.99391758 -0.03638221 -0.10394321 0.022494348
0.04250237 0.064817347 0.005150489 -0.99606627 -0.033952169 -0.081849322 0.013559825
-0.038686093 0.075189397 0.0066590952 0.99244469 -0.016193056 -0.12161967 0.02000043
0.042032111 0.076659627 0.0047058263 -0.99466592 -0.033439085 -0.097578295 0.02047368
-0.038643621 0.08620739 0.0048991302 0.99576014 -0.0025679886 -0.09195181 0.020512095
0.041751709 0.085756332 0.0040522865 -0.99113929 -0.021111555 -0.13113779 0.02192191
-0.038469192 0.095381506 0.0047031716 0.9956556 -0.043233581 -0.082467504 0.022692537
0.041194033 0.095392458 0.0053051058 -0.98133588 -0.037664194 -0.1885771 0.015558797
-0.038296551 0.1055247 0.0046585705 0.99734193 -0.0034156123 -0.07278315 0.021749746
0.039908625 0.10851857 0.0098956898 -0.96460718 -0.031837463 -0.26176217 0.019656198
0.040941887 0.10471461 0.0036402368 -0.99530536 -0.028499285 -0.092493184 0.02213143
-0.0380692 0.11455928 0.0051779742 0.9961707 -0.042580657 -0.076359496 0.022427535
0.039906912 0.11652546 0.008251057 -0.97141325 -0.044490524 -0.23318847 0.019944668
0.040514972 0.11278101 0.0044148657 -0.9840486 -0.063703351 -0.16610272 0.015056959
-0.037734356 0.12631594 0.0060728909 0.9912225 -0.024505166 -0.12991302 0.024812311
0.0395872 0.12682171 0.0066455496 -0.97565556 -0.064233989 -0.20969084 0.018449457
0.040186461 0.12485963 0.0018369738 -0.99557424 -0.091157369 -0.022851389 0.022984622
-0.037554912 0.13459823 0.0063955011 0.98934168 -0.042825654 -0.139173 0.021210687
0.039486699 0.13452388 0.0041180584 -0.99269241 -0.067674436 -0.099910103 0.020693826
-0.037645962 0.14487402 0.0039921766 0.99771285 0.0036247962 -0.067497432 0.021134328
0.039008576 0.14460914 0.0045028948 -0.99383253 -0.067485064 -0.087992586 0.021894157
-0.037193805 0.15699762 0.005810332 0.99003762 -0.020812578 -0.13925602 0.022220075
0.038329199 0.15611084 0.0053987075 -0.9899599 -0.052277777 -0.13132563 0.0214289
-0.036973003 0.16504478 0.0067456858 0.98453891 0.012802739 -0.17469753 0.022224484
0.0380405 0.16431867 0.004374546 -0.99106622 -0.075096287 -0.11021913 0.024396697
-0.037012465 0.17454603 0.0048604799 0.99624771 -0.027034126 -0.082216665 0.019281013
0.037489653 0.17438489 0.0046444158 -0.99484462 -0.067451149 -0.075727016 0.019881191
-0.03682065 0.18455702 0.0051515065 0.99475437 -0.027247077 -0.098597296 0.022533081
0.036867961 0.18526246 0.0047467421 -0.99578428 -0.054042112 -0.074115038 0.01922912
-0.036783196 0.19467264 0.0039893026 0.99661493 -0.023174781 -0.078877486 0.016911684
0.036258399 0.19458504 0.0057470053 -0.99196929 -0.044414014 -0.11842434 0.02321611
-0.036537491 0.20373629 0.0047362098 0.99483287 -0.026133364 -0.098105259 0.016517537
0.035613142 0.20695946 0.0055836295 -0.98993623 -0.049536165 -0.13256106 0.020800699
-0.03619802 0.2170075 0.0058750459 0.98987174 -0.012604228 -0.14140423 0.020694062
0.035215866 0.2143459 0.0057552857 -0.98999012 -0.056441233 -0.12935977 0.018971974
-0.035970833 0.22524863 0.006962108 0.9894259 -0.005277507 -0.14494312 0.019034594
0.034686066 0.22500531 0.0050961403 -0.99397713 -0.041366577 -0.10148017 0.018476611
-0.036047652 0.23511444 0.0051826057 0.9899897 0.029238855 -0.13807794 0.01339821
0.033867836 0.23615937 0.006258999 -0.98393941 -0.049916949 -0.17138132 0.020819709
-0.035939708 0.24497938 0.0046070376 0.99368936 -0.015631977 -0.11107263 0.014032383
0.033489689 0.24439669 0.0046654372 -0.99232054 -0.039919466 -0.11707447 0.01623087
-0.035727326 0.25542736 0.00526297 0.98287362 -0.00068488502 -0.1842795 0.019652003
0.032825317 0.25518939 0.0054082614 -0.99399692 -0.017869651 -0.1079389 0.016195348
-0.035524637 0.26368496 0.0059924191 0.98512059 -0.032807406 -0.16870433 0.02003618
0.032241128 0.26386124 0.0058664107 -0.99501371 -0.056491558 -0.082197294 0.012212679
-0.035527911 0.27379617 0.0045321286 0.99172819 -0.029797699 -0.12484933 0.020460637
0.031966906 0.2732408 0.0033395484 -0.99807608 -0.041743748 -0.045841951 0.014115439
-0.035388015 0.28354359 0.0050813057 0.99343103 -0.028299684 -0.11087776 0.020489059
0.031044429 0.28459853 0.0053209034 -0.98289913 -0.079178467 -0.1662529 0.014316509
-0.035290357 0.29635826 0.0045260047 0.99765456 -0.019753445 -0.065538749 0.017601959
0.030471215 0.29521877 0.0040157544 -0.98919517 -0.067634635 -0.13007113 0.020641778
-0.035164103 0.30484384 0.0043074973 0.99490905 0.013368053 -0.099886678 0.021130327
0.029403945 0.30660683 0.0067499727 -0.9775759 -0.060303375 -0.20176445 0.018696116
0.030127009 0.30268115 0.0027725624 -0.99264264 -0.10086815 -0.066979125 0.02309094
-0.034976482 0.31474978 0.0051445574 0.99310935 -0.016980443 -0.1159545 0.022011153
0.028999472 0.31486878 0.0057023214 -0.98877978 -0.10543141 -0.10582399 0.018919706
-0.034820665 0.32344115 0.0058005149 0.99040812 -0.01319501 -0.13754161 0.02258171
0.028410466 0.32500896 0.0048905918 -0.9932937 -0.079926394 -0.08354234 0.020020468
-0.034798812 0.33341467 0.0050285165 0.99253589 -0.023009708 -0.11976279 0.019892333
0.027586617 0.3348228 0.0063268263 -0.99192363 -0.055256568 -0.11416772 0.02356118
-0.034729037 0.34534845 0.0046399701 0.99283838 -0.0085414201 -0.11915975 0.021989567
0.027047882 0.34545645 0.0045982352 -0.99517763 -0.045000594 -0.087158084 0.018948056
-0.034692474 0.35489076 0.0038822058 0.99747729 0.0067581329 -0.070663042 0.014854692
0.026434643 0.35437357 0.0042832647 -0.99618614 -0.075799629 -0.043215893 0.020079026
-0.034325745 0.36483151 0.0064103669 0.98565185 -0.027404515 -0.16655119 0.021166472
0.0257507 0.36437333 0.0040428373 -0.99471223 -0.069941975 -0.075204112 0.017467501
-0.034412164 0.3772018 0.0046449765 0.99102664 0.062254284 -0.11828182 0.051170174
0.024862114 0.37521163 0.0048526041 -0.99514389 -0.0053337649 -0.098286115 0.048974138
-0.034357317 0.38461664 0.0044146278 -0.98539817 -0.13894996 0.098403998 0.17843005
0.02412373 0.38432801 0.0057375911 0.96897995 -0.10511193 0.2236724 0.16293433
-0.24611251 0.39837465 0.0059887189 -0.54796118 -0.83165812 0.089907385 0.11307863
-0.23430486 0.39815059 0.005497335 -0.17777094 -0.97885722 0.10117353 0.07422699
-0.22588457 0.39805913 0.0051132254 -0.061970606 -0.99096036 0.11898414 0.078413099
-0.21652618 0.39788598 0.0041962527 0.034324519 -0.99492073 0.094628103 0.070464194
-0.20621008 0.39797863 0.0042105117 0.029154547 -0.99642152 0.079336323 0.068045668
-0.19407082 0.39826247 0.006122841 0.036330581 -0.99111789 0.12792709 0.068125263
-0.18531093 0.39800629 0.00503068 0.1569699 -0.982997 0.095274955 0.064581387
-0.17648761 0.39837474 0.0063392962 0.28881484 -0.95041156 0.11534233 0.052793063
-0.033952516 0.39668298 0.0068985033 -0.020089692 -0.99818808 -0.056718681 0.17168759
0.023548765 0.39481366 0.0038890883 -0.0037632291 -0.99947757 -0.032100417 0.17575032
-0.24659982 0.40608987 0.0051500136 -0.73315787 -0.67303765 0.097466692 0.10773844
-0.2357398 0.40880954 0.0036714294 -0.433117 -0.89458537 0.11012153 0.12437894
-0.22714776 0.40901852 0.005168193 -0.20312048 -0.96143281 0.18544316 0.094110154
-0.21382253 0.40924582 0.0062914975 0.029528415 -0.97820294 0.20554112 0.083976984
-0.20572153 0.40909418 0.0055666114 0.01075608 -0.98101246 0.19364619 0.089294478
-0.1940625 0.40916902 0.0057318327 0.045682978 -0.98340476 0.17557952 0.07413505
-0.18496956 0.40889901 0.0043240003 0.14704835 -0.97957098 0.13717672 0.081591062
-0.1743992 0.40711623 0.0031978458 0.33247337 -0.93838739 0.094289839 0.059929915
-0.16781357 0.40958148 0.0010610176 0.35773367 -0.93232453 0.052892711 0.058345672
-0.084925286 0.40339077 0.0047181388 -0.5860709 -0.80635834 0.079418004 0.059905555
-0.075518459 0.40112111 0.005697581 -0.44575852 -0.89486289 0.022800736 0.054938793
-0.065295234 0.40112108 0.0047114091 -0.17779395 -0.98403925 0.0074883504 0.029312104
-0.056145787 0.40112111 0.0059540323 -0.17237847 -0.98389101 0.047372676 0.03349426
-0.044715315 0.40112108 0.0064196172 -0.28526968 -0.95837313 0.011919 0.10391844
-0.034056183 0.40093318 0.0053331093 -0.090598315 -0.9945007 -0.052538957 0.17307079
-0.025716126 0.40112111 0.0039116987 0.26988554 -0.96128207 -0.055664893 0.13260886
-0.013136246 0.40112111 0.0053199902 0.16121298 -0.98433739 -0.071346201 0.042739473
-0.00508948 0.40112108 0.0052782735 -0.0020848936 -0.9977898 -0.066415459 0.012279165
0.0036740692 0.40112108 0.0040355525 -0.16685526 -0.98456162 -0.052893329 0.046988975
0.013703936 0.40112108 0.0051368386 -0.20294023 -0.97895694 -0.021416014 0.10581981
0.025951661 0.40099445 0.0049235737 0.19006211 -0.98157233 0.019802034 0.14641251
0.035635438 0.40112111 0.0030470458 0.40575674 -0.91371071 0.022231186 0.083748594
0.044243857 0.40112105 0.0046142954 0.5008291 -0.86509496 0.027947433 0.062836826
0.054069199 0.40365773 0.0041417857 0.63668031 -0.77112341 -0.0026485424 0.061210405
-0.24898432 0.41540882 0.0042997771 0.92012072 0.38846368 -0.049737342 0.089023553
-0.16415422 0.41077819 0.0058110412 0.32555002 -0.9285475 0.17837256 0.055125073
-0.15493804 0.41185719 0.0044864737 0.34063432 -0.9329797 0.11626329 0.036386371
-0.14447121 0.41389379 0.0061468086 0.15379696 -0.98199916 0.1096548 0.020659916
-0.1348187 0.41516122 0.0050484273 0.15393104 -0.97896713 0.13389774 0.024813872
-0.12387178 0.41677731 0.0050316988 0.12918907 -0.97796285 0.16400819 0.033734266
-0.11499199 0.41836491 0.005710267 0.10806271 -0.97705376 0.18354411 0.039414752
-0.10588468 0.41929826 0.0032432037 -0.11688267 -0.9889105 0.091621801 0.095929176
-0.086628333 0.41411233 0.0053539639 -0.62975538 -0.76413429 0.13966762 0.08105126
0.054952208 0.41514346 0.0044855578 0.75543988 -0.65520364 -0.0043248492 0.10644156
-0.24898431 0.42601737 0.0069664391 0.97298062 0.21845312 -0.074746162 0.067066416
-0.10453497 0.42081597 0.0097793788 -0.10708605 -0.94826323 0.29888031 0.085865162
-0.096034355 0.42121848 0.0052316156 -0.27932161 -0.95274109 0.11943094 0.12467423
-0.087413974 0.42148289 0.0042404714 -0.6684345 -0.7370351 0.099872559 0.10838072
0.056381099 0.42265287 0.0036992957 0.8751685 -0.48311734 0.026033426 0.1903865
0.06417688 0.42212665 0.0058225598 0.64708114 -0.76220453 0.018171888 0.23463061
0.075438291 0.42212665 0.0051830681 0.28958321 -0.95628291 -0.040798359 0.12848949
0.084813304 0.42254284 0.0049995398 0.14855543 -0.98788685 -0.044843212 0.084778599
0.094853736 0.42458624 0.0029914591 0.33453572 -0.94208264 -0.023794319 0.14571184
0.10639573 0.42399657 0.0039309352 0.10437346 -0.98891562 -0.10560311 0.18188362
0.11369488 0.42418557 0.0044717859 0.080510288 -0.86978388 -0.48682043 0.1847049
0.12523663 0.42434844 0.0040370477 -0.024732903 -0.93435585 -0.35548189 0.19702829
0.13437669 0.42596024 0.0039607207 0.029033761 -0.61781162 -0.78578997 0.23440342
0.14483212 0.42435482 0.005455832 -0.074322104 -0.98210347 -0.17305826 0.17774895
0.15487039 0.42443052 0.0060433485 -0.069616817 -0.95918965 -0.27405962 0.16498776
0.16554292 0.42427218 0.0064365733 -0.00011233198 -0.9270063 -0.37504598 0.1664011
0.17560554 0.42514101 0.0059093121 -0.030493023 -0.96938598 -0.24364111 0.21546651
0.1849518 0.42486289 0.0069343974 0.31417233 -0.87950915 -0.35743448 0.24737541
0.19420946 0.42540741 0.007258411 0.17248099 -0.96110517 -0.21570179 0.21771628
0.20444727 0.42460889 0.0078442721 -0.042780001 -0.99159342 -0.12211605 0.15703994
0.21625941 0.42484516 0.0084099863 -0.17226672 -0.98388976 -0.047802322 0.11432598
0.22518371 0.4255158 0.0089475485 -0.26961011 -0.96282774 -0.016525339 0.090875909
0.23382248 0.42480472 0.0093265725 -0.19410945 -0.98096853 0.0047169742 0.071573287
0.24184065 0.42482075 0.0097972276 -0.28798419 -0.95763099 -0.0028216266 0.055069197
-0.24898429 0.43474022 0.0031467371 0.99400908 0.10522015 -0.029573901 0.018326275
0.054952215 0.4343012 0.0043605105 -0.96751839 -0.24713416 0.053225722 0.083073631
0.089598 0.43569016 0.00082641561 0.42220369 -0.55322754 0.71811104 0.23720737
0.095245458 0.43462035 0.00078200421 0.64009118 -0.56912047 -0.51612514 0.24443251
0.10550023 0.4348751 0.0017942215 0.13006061 -0.12595284 -0.98347348 0.24697645
0.11520441 0.43563327 0.0023638424 0.034595978 -0.17209984 -0.9844718 0.16719337
0.12550285 0.43405721 0.002968349 -0.091138363 -0.30468348 -0.94808322 0.17698957
0.13622738 0.43563166 0.0035978653 -0.01848351 -0.21244833 -0.97699749 0.17468315
0.14507122 0.43429062 0.0041169869 0.028478323 -0.22151451 -0.97474122 0.16134065
0.15514816 0.43505391 0.0047084899 0.10917243 -0.084335439 -0.99043882 0.17074579
0.164823 0.43578219 0.0052763885 0.05662518 -0.020862231 -0.99817753 0.19590853
0.17454419 0.43503681 0.0058470098 -0.044931632 -0.1456473 0.98831576 0.23548259
0.18422191 0.43507424 0.0064150793 -0.27440023 -0.44933301 0.85017896 0.29737157
0.19480228 0.4359163 0.0070361332 -0.32881352 -0.93273067 -0.14797017 0.25602317
0.2049737 0.43383262 0.0076331827 -0.36109236 -0.93188089 0.03478967 0.1742294
0.21461906 0.4335281 0.0081993518 -0.34544882 -0.93843579 -0.0018238217 0.12593979
0.22667846 0.43152007 0.0089072268 -0.36066568 -0.93265587 0.0085605346 0.084501907
0.23242576 0.43095961 0.0092445835 -0.284309 -0.95858419 -0.016873889 0.073940262
-0.24898432 0.44487682 0.0047231582 0.99998784 0.0031260424 -0.0038079205 8.6276319e-05
0.054952208 0.44586107 0.0052507659 -0.99295992 -0.11815992 -0.0082979193 0.016950499
0.0890911 0.44660172 0.00083102641 -0.016791873 -0.03078356 0.99938506 0.065319523
0.094805129 0.44431859 0.0008293803 0.010521266 -0.016966488 0.99980068 0.091969743
0.10547021 0.44558579 0.0017924584 -0.0072650937 -0.012955278 -0.99988967 0.058503386
0.11621475 0.44438869 0.00242315 -0.024880974 -0.024002904 -0.99940223 0.052493352
0.12578689 0.44621956 0.0029850206 -0.036697827 -0.001581403 0.9993251 0.066296183
0.13415408 0.44526204 0.0034761645 -0.0038079442 -0.00146022 -0.99999171 0.082267717
0.14509939 0.44479036 0.0041186409 -0.072547883 -0.022058908 0.99712098 0.12140813
0.15503941 0.44545603 0.004702108 -0.09624096 -0.0047138012 0.9953469 0.16830146
0.16473813 0.44705746 0.0052714101 -0.13964239 -0.20322214 0.96912378 0.23297362
0.1771044 0.44596624 0.0059972941 -0.26875532 -0.37940457 0.88533759 0.25555328
0.18349782 0.44580057 0.0063725789 -0.52042252 -0.77183539 0.36528146 0.22227952
0.19525616 0.44621435 0.0072925515 -0.43801302 -0.88502359 0.15772693 0.19388387
0.20300336 0.44465622 0.0081024868 -0.47742698 -0.87745506 0.046217505 0.1630311
-0.24898432 0.45430675 0.0035738919 1 -7.8516791e-08 -8.3214837e-07 2.7002128e-05
0.054952215 0.4556013 0.0029559762 -0.99864769 -0.019860471 -0.048044704 0.083688505
0.089715801 0.45804557 0.00083817355 -0.02569608 -0.03943501 -0.99889171 0.12544839
0.095308401 0.45533764 0.00092110276 -0.079931967 -0.012779254 0.99671841 0.10755613
0.10528213 0.45442563 0.0016460161 -0.0089742439 -0.01317245 -0.99987298 0.10116404
0.11528389 0.4532913 0.0023685091 -0.024440726 -0.016351864 0.99956751 0.099378981
0.12540105 0.45579016 0.0029623732 -0.056917533 -0.2180903 0.97426736 0.16904452
0.13336341 0.45514542 0.0034297535 0.013505787 -0.2322631 0.97255921 0.16692875
0.14640069 0.45555851 0.0041950266 -0.16524063 -0.54200464 0.82397002 0.18557289
0.15470181 0.45492351 0.0046822899 -0.17399384 -0.78332931 0.59675896 0.20465446
0.16494016 0.45584592 0.0054249992 -0.24707909 -0.89083177 0.38127515 0.19433141
0.17396943 0.45410642 0.0062852311 -0.30965272 -0.92220306 0.23163921 0.16137646
0.1848277 0.45233911 0.0070966436 -0.40931469 -0.88859457 0.20702901 0.14559659
0.19155821 0.45083672 0.0077910945 -0.41214281 -0.89617831 0.16432491 0.12747535
-0.24898432 0.46474221 0.0052785496 0.98043728 -0.18447202 -0.068650126 0.029541388
0.054952208 0.46521732 0.0042898757 -0.95310181 -0.3003484 0.037253179 0.20882294
0.089820072 0.46652493 0.0008738169 -0.47806191 -0.8770988 0.046416961 0.17681356
0.095199578 0.46464747 0.00074470433 -0.61448216 -0.78482014 -0.080430336 0.24417843
0.10352816 0.46583584 0.0011885166 -0.48126009 -0.87203389 -0.089138411 0.24516141
0.11535207 0.46404609 0.0023725121 -0.15235589 -0.89979404 0.4088501 0.24559268
0.12677819 0.4661997 0.0041801459 -0.23372526 -0.95195484 0.19787456 0.21340312
0.1359024 0.46573925 0.0047902768 -0.26589978 -0.9363097 0.22939341 0.17956856
0.1447359 0.46558151 0.0062100329 -0.23103712 -0.94986671 0.21065396 0.12638888
0.15450129 0.46257606 0.0060039335 -0.27158022 -0.92058682 0.2806493 0.15908611
0.16354811 0.46076337 0.0094079114 -0.29854774 -0.93949735 0.16796975 0.13056056
-0.24898431 0.47557005 0.004977141 0.94522369 -0.30818966 -0.10757003 0.070068635
-0.12236603 0.47967139 0.0091392128 -0.15088709 -0.94484979 -0.29067516 0.028023588
-0.11381887 0.47904256 0.0057026958 -0.10523393 -0.97434819 -0.1989257 0.037899803
-0.10407723 0.47753596 0.0055368664 0.0037693502 -0.98765552 -0.1565966 0.069241829
-0.095324099 0.47630519 0.0047835573 0.12953299 -0.98888093 -0.073046103 0.099412121
-0.087626167 0.47662497 0.006087807 0.45160168 -0.88433069 -0.11838592 0.089165129
0.044956025 0.47959581 0.0054432983 -0.35169637 -0.93600088 0.014558094 0.090909652
0.054644763 0.47642031 0.0060933311 -0.25366879 -0.9671306 -0.017621491 0.1342188
0.063891254 0.47784963 0.0054466305 -0.021304931 -0.99960172 0.018504312 0.12598659
0.074827768 0.47732025 0.0055008205 0.022002006 -0.99974054 -0.0058951541 0.07838919
0.085242257 0.47598282 0.0047978414 -0.29798481 -0.94946724 0.098574691 0.11484719
0.095636807 0.47428545 0.0038122267 -0.29138914 -0.95109123 0.10255665 0.14436062
0.10398181 0.47343788 0.0055350112 -0.24632829 -0.93974328 0.23707563 0.14748432
0.1135795 0.47267586 0.0050595393 -0.20707069 -0.9318707 0.29789042 0.18554552
0.12382256 0.47091565 0.005806874 -0.26505789 -0.89344364 0.36263311 0.17034009
-0.24695797 0.48634654 0.0052288589 0.80332398 -0.58977103 -0.082708754 0.10252045
-0.23570378 0.48849848 0.005651623 0.49476022 -0.8483873 -0.18828546 0.12650697
-0.22478442 0.48856765 0.0052328017 0.11728732 -0.98072684 -0.15626456 0.10403837
-0.21342301 0.48854062 0.005429185 -0.04813458 -0.98395336 -0.17181069 0.089177825
-0.20421363 0.48859045 0.0050560166 -0.015680889 -0.99339128 -0.1137008 0.089603052
-0.19392842 0.48844182 0.0062861578 -0.048326012 -0.9852857 -0.16394076 0.080950767
-0.18509173 0.48859143 0.004880154 -0.11285991 -0.98737252 -0.11116742 0.085548371
-0.17465213 0.48852301 0.0054713804 -0.23957884 -0.96007586 -0.14441745 0.055103727
-0.16462059 0.4870725 0.0054493109 -0.2606512 -0.956828 -0.12861229 0.047218457
-0.15391324 0.48533943 0.005914256 -0.22276492 -0.97099537 -0.086854555 0.031707235
-0.14487955 0.48396498 0.0056516347 -0.13046664 -0.9758963 -0.17494278 0.022077823
-0.13516036 0.48230189 0.0063026166 -0.1506304 -0.96453249 -0.21676607 0.022961497
-0.12492716 0.48103374 0.0043364107 -0.1672743 -0.97880256 -0.11817311 0.030873889
-0.11869999 0.48031425 0.0027631507 -0.18836159 -0.97193098 -0.14096113 0.034523148
-0.085055508 0.48633522 0.004641966 0.43069524 -0.89651257 -0.10376317 0.061417881
-0.075596385 0.48916894 0.0051919944 0.40089825 -0.91326571 -0.072293818 0.044034034
-0.064699873 0.48888251 0.0048633288 0.1316731 -0.9912926 -0.0011056778 0.027539169
-0.054159604 0.48850021 0.0047059082 -0.042483222 -0.99909711 -0.00023558878 0
-0.043834247 0.48801735 0.0054250103 -0.052219167 -0.99860305 -0.0080711124 0.00013429461
-0.037114684 0.48765236 0.004854959 -0.056570869 -0.99839807 -0.0010254364 2.7083412e-05
-0.024394725 0.48683444 0.0038580832 -0.069603607 -0.99757433 -0.00094319123 0
-0.015529969 0.48617262 0.0053715236 -0.076854676 -0.99702626 -0.0056551076 0.00025178099
-0.0058943806 0.48536229 0.0052007898 -0.089483075 -0.99598831 0.00018648106 6.8471512e-05
0.0043185609 0.48440796 0.0062913978 -0.096989535 -0.99528021 -0.0032046698 3.404266e-05
0.016511535 0.48313484 0.0042755725 -0.11163209 -0.99374735 -0.0021134119 0.00013914405
0.024157481 0.48225868 0.0053364602 -0.11837129 -0.9929682 -0.0015411145 0.00019506793
0.035262868 0.48088619 0.0048713884 -0.25495282 -0.96693832 -0.0054229121 0.025336564
0.041023087 0.48013306 0.0030175692 -0.34220016 -0.93959475 -0.007786918 0.062662333
-0.2467348 0.49728078 0.004855305 0.55663341 -0.83013541 -0.032160938 0.12292606
-0.23341815 0.49949822 0.0049889516 0.20542985 -0.97078735 -0.12397747 0.08666189
-0.2243221 0.49950537 0.0048652841 0.065904111 -0.98958516 -0.12797564 0.074515954
-0.21375552 0.49945274 0.0057840287 0.03643686 -0.99173301 -0.12303647 0.081237182
-0.20420982 0.49957138 0.0036858851 0.0045192745 -0.99286324 -0.11917263 0.080039635
-0.19566058 0.4995608 0.0038955435 -0.072960131 -0.99052948 -0.11631045 0.069453627
-0.18471695 0.49948084 0.0052933213 -0.16695231 -0.9792614 -0.11477792 0.07606034
-0.17497389 0.49686459 0.0040342165 -0.29552796 -0.94579655 -0.13465497 0.057118554
-0.054063898 -0.49640572 0.013704322 0.74684447 0.60333717 -0.27965608 0.089371331
-0.044665344 -0.49940333 0.015028488 0.51926202 0.81516701 -0.25665075 0.093430713
-0.036590666 -0.49940336 0.014175615 0.29147866 0.92375207 -0.24843961 0.062146496
-0.024800699 -0.49940327 0.016432209 0.074771143 0.97330314 -0.21700302 0.030131355
-0.015665902 -0.4994033 0.014656728 -0.013131273 0.98494577 -0.17236444 0.027216781
-0.0047862278 -0.49940327 0.01649829 0.023237063 0.98546249 -0.16829634 0.025042133
0.0036357818 -0.49940327 0.015351367 -0.001670445 0.98350537 -0.18087129 0.027033923
0.0146832 -0.49940333 0.014271981 -0.04209343 0.98240238 -0.18197162 0.028987227
0.024508238 -0.49940333 0.014895559 -0.15106106 0.9627822 -0.2241227 0.039518543
0.032293923 -0.49940327 0.015257474 -0.33904842 0.89293003 -0.29617923 0.068268716
0.046272755 -0.49630705 0.014842506 -0.78297639 0.50758278 -0.35959381 0.063279212
-0.054496266 -0.48496747 0.01339707 0.92087626 0.26396906 -0.28689238 0.05596355
0.04752193 -0.48349458 0.01579719 -0.8866787 0.2789332 -0.36877796 0.057979126
-0.053693801 -0.47465667 0.014400992 0.92868006 0.018357551 -0.37042731 0.024545798
0.048222456 -0.47489592 0.014119831 -0.93685865 0.10158359 -0.33462906 0.024524748
-0.052959513 -0.46349651 0.014881657 0.91481733 -0.040837817 -0.40179783 0.022989152
0.047781654 -0.46580455 0.015185546 -0.93451357 -0.012476327 -0.35570887 0.014790138
-0.052724835 -0.4528386 0.014307186 0.93320912 -0.014639876 -0.35903537 0.021651035
0.048429281 -0.45587835 0.013697108 -0.94453669 -0.016165936 -0.32800758 0.01889234
-0.052168161 -0.44607344 0.015121751 0.92301983 -0.040621694 -0.38260213 0.021573395
0.047968823 -0.44559151 0.014731373 -0.93559891 -0.0056947866 -0.35301894 0.015275054
-0.051883142 -0.43607655 0.014971455 0.92397195 -0.028730463 -0.38137966 0.02273858
-0.049775861 -0.43118978 0.019125752 0.89837474 -0.011629393 -0.43907592 0.016097078
0.048094973 -0.43561688 0.01455139 -0.94620299 0.0098507339 -0.32342377 0.018395998
-0.051659118 -0.42435274 0.014223395 0.94009495 -0.023697013 -0.34008813 0.021740468
-0.049430355 -0.42480552 0.019276839 0.89370918 -0.019804312 -0.44820926 0.015439361
0.047561292 -0.4239814 0.015882501 -0.92461807 0.0028403341 -0.38088486 0.014143763
-0.051569246 -0.41302881 0.013480038 0.94857633 0.005186751 -0.31650609 0.021891201
-0.049049146 -0.4127374 0.019130625 0.9055202 -0.027373875 -0.42341915 0.016653093
0.047855433 -0.41467482 0.014929498 -0.93337119 -0.0072989352 -0.35883853 0.014883201
-0.051233832 -0.40373674 0.013419927 0.9504261 -0.0085029528 -0.31083438 0.020673683
-0.04929186 -0.40263358 0.018053005 0.90503263 -0.038064182 -0.42363557 0.015577484
0.047472745 -0.40524608 0.01624712 -0.92917156 0.01574917 -0.369313 0.013853488
-0.050909929 -0.39578447 0.013480825 0.94458705 -0.04833547 -0.3246828 0.022119414
-0.048679661 -0.39648014 0.018699065 0.88793272 -0.051211238 -0.45711359 0.013962587
0.048027989 -0.39538753 0.014713176 -0.94053823 -0.0057866503 -0.33963844 0.013314896
-0.050926723 -0.38547388 0.012228256 0.96154833 -0.051000785 -0.26985857 0.025406308
-0.048812672 -0.38531607 0.017688684 0.90544403 -0.038180977 -0.42274484 0.028202187
0.04793359 -0.38390827 0.014916074 -0.92727119 0.032051113 -0.37301591 0.017269729
-0.050509762 -0.3741459 0.012179544 0.950481 -0.049798563 -0.3067669 0.021958103
-0.048888735 -0.37399358 0.016528206 0.92477953 -0.085001476 -0.37088755 0.018547425
0.047329806 -0.37585288 0.016430551 -0.92298377 0.023341728 -0.38413051 0.018734284
-0.050458103 -0.36557254 0.011338083 0.95695704 -0.034176651 -0.28821039 0.024082579
-0.049243692 -0.36487511 0.014864161 0.93419421 -0.013623229 -0.35650465 0.017730735
0.0479763 -0.36464211 0.014900525 -0.931494 0.001740937 -0.36375263 0.015826847
-0.050359786 -0.35568529 0.010485763 0.95971495 -0.046219897 -0.27714792 0.02356967
-0.048222028 -0.35535786 0.01623496 0.91200089 -0.034296576 -0.40875182 0.021213165
0.047976207 -0.35640821 0.014839143 -0.93795145 -0.0036910898 -0.34674698 0.019794174
-0.048428193 -0.34377691 0.014762814 0.9287414 -0.023871856 -0.36995891 0.01485073
0.047752135 -0.34421411 0.01520622 -0.94260538 -0.0076214885 -0.3338218 0.016745508
-0.048181415 -0.33574545 0.014784599 0.93638933 -0.033927139 -0.34931937 0.018459288
0.047852695 -0.33376455 0.015059093 -0.93953139 -0.0095814597 -0.34232879 0.016914152
-0.047746334 -0.32391787 0.01464937 0.92673558 -0.02921577 -0.37457642 0.013219125
0.048009537 -0.32483318 0.014711831 -0.93931872 0.022491669 -0.34230757 0.017366197
-0.047098517 -0.31530723 0.015512452 0.91943681 -0.032786846 -0.39186862 0.012524623
0.047714949 -0.31662861 0.015450684 -0.93047714 -0.0020842885 -0.36634403 0.014696768
-0.047160324 -0.30459145 0.014345272 0.93903559 -0.017455876 -0.34337643 0.014776859
0.048321441 -0.30346787 0.013852205 -0.95198894 -0.00055633619 -0.30613187 0.019143419
-0.046659213 -0.2963517 0.01473584 0.93816978 -0.046244066 -0.3430728 0.014432476
0.047816288 -0.29574335 0.01503892 -0.93991506 -0.015295789 -0.34106559 0.016288998
-0.045909204 -0.28454247 0.015575512 0.91116214 -0.031915605 -0.4108102 0.016020993
0.04761057 -0.28362381 0.015330164 -0.923177 0.0097169429 -0.38425231 0.015137501
-0.04676364 -0.27584615 0.012578994 0.9503001 -0.04680495 -0.30779716 0.019987021
0.047714975 -0.27506542 0.015016102 -0.93029577 -0.0099836821 -0.36667442 0.013126195
-0.045519758 -0.26457575 0.014922146 0.91193908 -0.023494408 -0.40965262 0.015658947
0.047577266 -0.26470745 0.01528965 -0.93460685 0.0058704447 -0.35563403 0.016380688
-0.045088258 -0.25452152 0.015201757 0.91809082 -0.009705686 -0.39625123 0.022886872
0.048059251 -0.25403795 0.013646707 -0.94510138 -0.012071544 -0.32655436 0.017239228
-0.045130275 -0.24582271 0.014433025 0.91415578 -0.035036389 -0.40384603 0.016544262
0.047120962 -0.2451885 0.016003959 -0.9251889 -0.0073828422 -0.379435 0.012486325
-0.045230459 -0.23674233 0.013479836 0.94568944 -0.037020508 -0.32295662 0.015575022
0.047809366 -0.23530675 0.014129878 -0.94004804 -0.035668291 -0.33917159 0.01527979
-0.043863665 -0.22470556 0.015854647 0.88923991 -0.026994305 -0.45664403 0.017885899
0.047686741 -0.22488537 0.014151754 -0.93868101 -0.014090669 -0.34449887 0.014783173
-0.043523263 -0.21379094 0.015802421 0.89745706 -0.0047031394 -0.4410767 0.018304719
0.047870919 -0.21499968 0.013445671 -0.94200033 -0.010714602 -0.33544093 0.014024044
-0.043569967 -0.20376398 0.015115648 0.9185499 -0.0074728956 -0.39523435 0.023405215
0.047310911 -0.20421869 0.014451634 -0.92760336 0.00099336903 -0.37356532 0.010406824
-0.042846125 -0.19530016 0.016089106 0.90241593 -0.032576896 -0.42963287 0.018274089
0.047132269 -0.19530542 0.014614201 -0.93802047 -0.01745238 -0.34614024 0.014971186
-0.043302979 -0.18434836 0.01434382 0.90636164 -0.013368135 -0.42229116 0.015033122
0.047023002 -0.18526462 0.014451895 -0.936836 -0.016106574 -0.34939781 0.014527258
-0.042514384 -0.1758865 0.015511043 0.90443856 -0.042398773 -0.42449176 0.015406065
0.0464123 -0.17623675 0.015968436 -0.92028165 -0.025805222 -0.39040452 0.01292633
-0.042906921 -0.16372082 0.013386345 0.93328071 -0.026752995 -0.35815012 0.024076043
-0.039958324 -0.16279462 0.019977868 0.87413567 -0.013093909 -0.48550528 0.013778812
0.046357326 -0.16415374 0.01524642 -0.91223282 -0.00047925359 -0.40967181 0.016614689
-0.042457461 -0.15529907 0.014127967 0.92843646 0.0024469316 -0.37148309 0.023081984
-0.039770082 -0.15610445 0.01996032 0.88283461 -0.01527468 -0.46943551 0.014544516
0.046863712 -0.15569641 0.013742334 -0.94278729 -0.04213291 -0.33072171 0.022434123
-0.041936364 -0.14516331 0.014759138 0.93386871 -0.053884033 -0.35353339 0.02267484
-0.03982291 -0.1448167 0.01929575 0.88456273 -0.03401611 -0.46517918 0.016817952
0.046512999 -0.14369845 0.014369887 -0.94163078 -0.010283875 -0.33649021 0.015772436
-0.041758522 -0.13216355 0.014209501 0.93750602 -0.0089984126 -0.34785283 0.021143924
-0.039602716 -0.13351071 0.019098252 0.8935495 -0.026724847 -0.44816858 0.015867328
0.045920219 -0.13571534 0.015118343 -0.92420489 -0.02328123 -0.38118672 0.011128357
-0.041844409 -0.12625538 0.013578842 0.9455902 -0.048994455 -0.32165 0.02350183
-0.039457571 -0.12823881 0.019078953 0.87268102 -0.042934913 -0.48639941 0.020381866
0.045507237 -0.12435362 0.015812334 -0.90366799 -0.00018117616 -0.42823362 0.016691213
-0.041381743 -0.11513465 0.014032493 0.94955987 -0.015833614 -0.31318593 0.02618847
-0.039677311 -0.11423058 0.018039843 0.89401859 -0.035096537 -0.4466531 0.017762037
0.045448981 -0.11449481 0.015241442 -0.90277386 -0.0089685433 -0.430022 0.015101857
-0.041464631 -0.10506366 0.012987675 0.94665051 -0.020218514 -0.32162696 0.021223743
-0.039062705 -0.10508289 0.018672884 0.88617665 -0.028639 -0.46246156 0.01432234
0.045589641 -0.10540055 0.014568432 -0.92380929 -0.019516071 -0.38235515 0.011662699
-0.040887222 -0.094667077 0.013898362 0.94672137 -0.0088901818 -0.321931 0.02353462
-0.038872879 -0.093835361 0.018472021 0.87178701 -0.011614892 -0.48974741 0.021188114
0.04471232 -0.094640009 0.016013222 -0.8999151 -0.023629986 -0.43542436 0.016932264
-0.040852599 -0.08360298 0.013099018 0.94766194 -0.015197558 -0.31891355 0.021000763
-0.038677759 -0.083838761 0.018356137 0.87687099 -0.017572364 -0.48040447 0.020057609
0.045352619 -0.084973417 0.013653361 -0.93963748 -0.064188987 -0.33609712 0.021868838
-0.040389013 -0.075227268 0.013827843 0.9446075 -0.020920385 -0.32753477 0.020145234
-0.038577314 -0.077978455 0.018258918 0.90318245 -0.027959345 -0.42834529 0.013686381
0.044252865 -0.075136855 0.015911868 -0.91135895 -0.00099584949 -0.41161138 0.022127347
-0.040875554 -0.065334491 0.011534811 0.96189326 -0.055337995 -0.2677668 0.021296361
-0.038769636 -0.064878732 0.017243044 0.91280037 -0.02539636 -0.40761569 0.018396422
0.044152834 -0.064760156 0.015540645 -0.90320092 -0.020846225 -0.42871168 0.01616621
-0.040565971 -0.055565979 0.011680044 0.95503479 -0.03509992 -0.29440877 0.024059556
-0.038200188 -0.053679794 0.017730931 0.90923208 -0.010169465 -0.41616529 0.017545545
0.043571975 -0.054384965 0.016205918 -0.89373308 -0.018701514 -0.44820911 0.01930926
-0.040482394 -0.048215117 0.011343323 0.9656781 -0.041916978 -0.25633734 0.021592805
-0.038947228 -0.04592343 0.015476097 0.92613393 -0.025165705 -0.37635443 0.016211443
0.043469187 -0.045774881 0.015875973 -0.89532101 -0.043775309 -0.44326505 0.018718207
-0.038279414 -0.034826379 0.016443739 0.91597724 -0.026032448 -0.40038481 0.012378229
0.04336673 -0.035395756 0.015223411 -0.90212512 -0.027199773 -0.43061641 0.017378423
-0.040209342 -0.027246166 0.010643197 0.95612907 -0.064056814 -0.28585649 0.020351941
-0.038248021 -0.025229784 0.016162258 0.91475493 -0.057162292 -0.39994481 0.013451093
0.043257616 -0.024624443 0.014885881 -0.92411333 -0.024868518 -0.38130859 0.022255288
-0.038514707 -0.014549881 0.014315956 0.94733787 -0.027824771 -0.31902456 0.017131064
0.043640397 -0.015806831 0.012982532 -0.94858807 -0.026498739 -0.31540212 0.025261559
-0.03794219 -0.0056182146 0.0154415 0.91943502 -0.041042335 -0.3910943 0.017565044
0.042508561 -0.005085167 0.0149808 -0.92201382 -0.048452463 -0.38411307 0.023282526
-0.037491798 0.0048893094 0.015870292 0.91855502 0.011522845 -0.39512509 0.016214041
0.042532247 0.0042878515 0.014288688 -0.92874515 -0.0226693 -0.37002495 0.019889532
-0.037632558 0.015686011 0.014909574 0.92360979 -0.0032858308 -0.38331994 0.016157476
0.039930075 0.01804607 0.019039787 -0.8989194 -0.020887224 -0.43761587 0.015053674
0.04195758 0.016566647 0.01467963 -0.93623328 -0.015417785 -0.35104039 0.02398129
-0.037431218 0.025082681 0.014833308 0.93358034 -0.01745576 -0.35794285 0.016154818
0.039321095 0.025448741 0.019647747 -0.88885826 -0.0014032482 -0.45818013 0.015962696
0.041814175 0.026777705 0.014295569 -0.9328295 -0.0056712343 -0.36027351 0.021099394
-0.036951814 0.034503184 0.015617697 0.93424559 -0.032330919 -0.35516188 0.011139375
0.039704777 0.030224569 0.018698554 -0.88374567 -0.024186701 -0.46734208 0.018612189
0.041573122 0.033255816 0.014191486 -0.941697 -0.020943766 -0.33580962 0.022731621
-0.037669137 0.045376401 0.013146695 0.95735866 -0.030269153 -0.28731206 0.018362135
0.039379355 0.043959696 0.0183782 -0.87840956 -0.028063932 -0.47708389 0.018706935
0.041386597 0.045934811 0.013425073 -0.95329005 -0.032117195 -0.30034435 0.020281347
-0.036597047 0.056045812 0.015425269 0.92288727 8.4460298e-05 -0.38507026 0.016616302
0.038958866 0.054668184 0.018345404 -0.8871721 -0.050171643 -0.45870298 0.011573048
0.040930789 0.054963548 0.013686134 -0.95202905 -0.029618852 -0.30457082 0.021825921
-0.036370732 0.06478335 0.015547754 0.89728093 0.0044759982 -0.4414373 0.016927209
0.03850662 0.065143928 0.018326452 -0.88821352 -0.036402676 -0.45798641 0.013717028
0.041051958 0.066092849 0.011912949 -0.96511889 -0.03889633 -0.25890675 0.028951643
-0.036615122 0.073591404 0.014390005 0.92443866 -0.022706959 -0.38065425 0.01201996
0.038665358 0.073861904 0.017304044 -0.91328233 -0.061276004 -0.40269169 0.016248254
0.040527869 0.075482249 0.012338807 -0.95757616 -0.062302671 -0.28136519 0.024254179
-0.036320023 0.085083917 0.014439407 0.92267406 -0.016969444 -0.38520727 0.020665955
0.038932256 0.085424513 0.015633576 -0.93061 -0.031893861 -0.36462006 0.016581452
0.040499661 0.083794005 0.011378378 -0.95918083 -0.05799653 -0.27678266 0.023105413
-0.036675304 0.095558926 0.012804069 0.9562965 -0.014609736 -0.29203346 0.020363128
0.038136005 0.095730878 0.016211413 -0.92747939 -0.042340878 -0.37146899 0.015543113
0.040172182 0.091505677 0.011412112 -0.95568281 -0.048341259 -0.29040232 0.020139145
-0.0359254 0.10440928 0.014435031 0.91082901 0.0077639804 -0.41271091 0.015327996
0.037874125 0.10445407 0.015805425 -0.92798764 -0.042496059 -0.37017986 0.013385762
-0.035536539 0.11425673 0.014872139 0.91879165 -0.022125222 -0.39412224 0.019631218
0.037774917 0.11492626 0.015035189 -0.93744403 -0.052107647 -0.34421432 0.015630484
-0.035151653 0.12423689 0.015570533 0.89961129 -0.020546865 -0.43620795 0.018715296
0.037128344 0.12533392 0.015529539 -0.92789221 -0.049932316 -0.36948988 0.013011534
-0.035660088 0.13427605 0.01376322 0.9479056 -0.017993338 -0.31804299 0.015727466
0.036718275 0.1353053 0.015479963 -0.93075353 -0.060811523 -0.3605549 0.011020957
-0.03538847 0.14452921 0.013893987 0.9408955 -0.023820655 -0.33785832 0.016872106
0.035984583 0.14500752 0.015898561 -0.92588633 -0.048281252 -0.37470433 0.010433977
-0.035109732 0.15556236 0.014158376 0.95157272 -0.0044850949 -0.30739099 0.015499795
0.035535712 0.15555042 0.015682867 -0.91099393 -0.02601588 -0.41159847 0.015476231
-0.034544092 0.16571628 0.015094786 0.90443337 -0.011495636 -0.42646006 0.016389856
0.035258766 0.16546273 0.015259802 -0.90367651 -0.038047303 -0.42652214 0.017386286
-0.033973917 0.17637081 0.016234057 0.89510065 -0.010791228 -0.44573367 0.018223703
0.034414027 0.17510179 0.016133633 -0.89886004 -0.015748765 -0.43795276 0.018292645
-0.033829343 0.18482707 0.015975026 0.90684927 -0.031315763 -0.42029002 0.021940278
0.033791967 0.18504982 0.0161967 -0.88967419 -0.075313866 -0.45034173 0.016229488
-0.034357764 0.19566777 0.014375687 0.92328441 -0.0075224144 -0.3840434 0.019937618
0.033807848 0.19442311 0.015042482 -0.92207593 -0.065368585 -0.3814486 0.020820383
-0.034145374 0.20583798 0.014243727 0.93833989 -0.031481873 -0.34427774 0.01737785
0.033258367 0.2050205 0.014832309 -0.89989835 -0.054073494 -0.43273422 0.01622601
-0.033678215 0.21527843 0.015343486 0.89356798 -0.0026460718 -0.4489201 0.019697038
0.032348022 0.21589357 0.015782474 -0.90349364 -0.046704572 -0.42604911 0.016716626
-0.033171482 0.22429611 0.01613877 0.89795768 -0.023028668 -0.43947899 0.018431176
0.029919151 0.22381744 0.019854832 -0.8785525 -0.055243906 -0.47444034 0.015506893
0.032358788 0.22586142 0.014206146 -0.93423319 -0.043504704 -0.35399953 0.021606106
-0.033565376 0.23605748 0.014646739 0.91579682 -0.011663073 -0.40147248 0.019944996
0.029375799 0.23306394 0.019834775 -0.87588507 -0.050666593 -0.47985223 0.021954726
0.031456195 0.23689376 0.015201509 -0.9310559 -0.0302574 -0.36361998 0.023278072
-0.033186588 0.24385649 0.015714768 0.91809309 -0.029329412 -0.39527833 0.020663949
0.029652528 0.24889775 0.017717704 -0.9053086 -0.049607195 -0.42184755 0.016749818
0.031721719 0.24433912 0.013098137 -0.945593 -0.052658305 -0.32106242 0.025904004
-0.032950141 0.25540125 0.015748212 0.90450293 -0.0029058461 -0.42645741 0.016286973
0.029079067 0.25474104 0.018102001 -0.89159334 -0.056579169 -0.4492884 0.016319651
0.030824104 0.25425708 0.014081956 -0.94796526 -0.044828668 -0.31520212 0.02356055
-0.033141792 0.26447067 0.014727363 0.90672457 -0.022166627 -0.42114031 0.015418572
0.028860673 0.26373166 0.017525272 -0.90024459 -0.043650318 -0.43319088 0.022602821
0.030772377 0.26277888 0.012672175 -0.95730394 -0.050075728 -0.28471339 0.024138328
-0.032670032 0.27578825 0.015601827 0.90690315 -0.0085111279 -0.421253 0.015938943
0.028894763 0.27500942 0.015824338 -0.94340295 -0.077690221 -0.32242057 0.016980037
0.030470923 0.27854794 0.010694302 -0.96708035 -0.066930115 -0.24551143 0.017905604
-0.03304904 0.28450194 0.014501065 0.92270815 -0.034252506 -0.38397461 0.019026751
0.028010843 0.28582001 0.016096709 -0.93104857 -0.090040185 -0.35361192 0.015355393
0.030072391 0.28680474 0.010269741 -0.96312302 -0.059614368 -0.26237416 0.021359524
-0.033097174 0.29553866 0.013971604 0.94101077 0.025109585 -0.33744374 0.020679327
0.028463855 0.29344028 0.013847862 -0.95199716 -0.066536978 -0.29878783 0.02012299
-0.032322161 0.30621803 0.015659353 0.89672327 -0.030029953 -0.44157183 0.015274867
0.026936961 0.30574301 0.015410352 -0.92057365 -0.063821957 -0.38531917 0.013049602
-0.032095812 0.31453982 0.016044298 0.90625143 -0.0041891448 -0.4227182 0.014717721
0.02608978 0.31562355 0.015885871 -0.91714644 -0.070437647 -0.39227647 0.011794375
-0.032233268 0.32522842 0.015277386 0.90576643 -0.0023467117 -0.42377076 0.015760858
0.025700828 0.32578951 0.015207035 -0.90767276 -0.047713146 -0.41695762 0.014938856
-0.032232776 0.33650234 0.014794096 0.91235429 -0.0061783907 -0.40935501 0.020143101
