# .PCD v0.7 - Point Cloud Data file format
VERSION 0.7
FIELDS x y z normal_x normal_y normal_z curvature
SIZE 4 4 4 4 4 4 4
TYPE F F F F F F F
COUNT 1 1 1 1 1 1 1
WIDTH 581
HEIGHT 1
VIEWPOINT 0 0 0 1 0 0 0
POINTS 581
DATA ascii
-0.0021283173 -0.025260707 0.40212327 0.54444432 -0.081511483 -0.83482701 0.010472845
0.0062003671 -0.025201237 0.4078269 0.56223476 -0.049703687 -0.82548273 0.0038521455
0.16745886 -0.025373729 0.40755445 -0.45497024 0.16367719 -0.87533522 0.027147342
0.1731178 -0.024178447 0.40426257 -0.46408483 0.1817849 -0.8669368 0.036890078
0.21659307 -0.026233098 0.40586877 -0.84474826 -0.37122497 -0.38547692 0.16690393
0.22009769 -0.028188311 0.40068382 -0.87464708 -0.35729948 -0.32761183 0.17611212
-0.25512838 -0.014656217 0.40622064 0.91029966 0.18190984 0.37183774 0.056610763
-0.20260671 -0.014897279 0.40587777 0.5469963 -0.24466707 -0.80058295 0.1644216
-0.19517706 -0.0149321 0.40470076 0.24823181 -0.2564702 -0.93413275 0.13617656
-0.18530996 -0.015099779 0.40470073 -0.22163814 -0.17382395 -0.95951116 0.089952596
-0.17341135 -0.01532097 0.40374184 -0.19385873 -0.056351375 -0.97940964 0.0061407136
-0.16485384 -0.017900789 0.4011023 -0.24885122 -0.012901263 -0.96845585 0.0023052758
-0.001943277 -0.016612502 0.40224999 0.56490934 -0.0040003853 -0.82514328 5.1934283e-05
0.0043884409 -0.014147974 0.40658614 0.56503588 -2.236254e-06 -0.82506633 8.887363e-06
0.16666394 -0.013817091 0.40812242 -0.33379498 0.2656633 -0.90443569 0.085925482
0.17494959 -0.014210036 0.40326139 -0.44425982 0.34027261 -0.82876283 0.094077855
0.20722833 -0.010132987 0.40838531 -0.90450746 -0.30592307 -0.29711515 0.19135523
0.21540953 -0.013893236 0.40512577 -0.908737 -0.26879427 -0.31929106 0.15147899
-0.25512838 -0.002447603 0.40619808 0.91660935 0.0480326 0.39688817 0.069256723
-0.20265366 -0.005035846 0.40484717 0.62134981 -0.12657832 -0.77324146 0.15342371
-0.19664271 -0.0045657447 0.40470073 0.4974058 -0.00029362683 -0.86751789 0.1639308
-0.18435265 -0.005209601 0.40470073 -0.095714658 0.018761063 -0.99523199 0.11340655
-0.17443363 -0.0043413783 0.40402317 -0.15098053 0.00094449962 -0.9885363 0.0029823016
-0.16619942 -0.0055512371 0.40152368 -0.2481643 -0.0020080653 -0.96871585 0.0011821103
-0.002077041 -0.0063568936 0.40215841 0.5650264 -1.079611e-06 -0.82507282 0
0.0035727529 -0.0057223807 0.40602753 0.56502658 -2.0246857e-06 -0.82507277 0
0.16564134 -0.0056767846 0.40914592 -0.40080091 0.35386783 -0.84506577 0.16783306
0.17624581 -0.0053890231 0.40417433 -0.42776754 0.3027966 -0.85166252 0.15207164
0.18612362 -0.0055144518 0.40599659 -0.030980205 0.99100274 -0.13020638 0.25443494
0.19543283 -0.0077259033 0.40450439 -0.92198676 0.074800856 -0.37992784 0.30615345
0.20295417 -0.0092263836 0.40744185 -0.91829383 -0.34219739 -0.1990913 0.22354953
-0.25512838 0.0045728614 0.40616161 0.92267865 -0.01098168 0.38541344 0.069673225
-0.20265368 0.0050599007 0.40420943 0.53171712 0.15528888 -0.8325637 0.14335728
-0.19455047 0.0059111803 0.40470076 0.34209302 0.14096548 -0.92903233 0.1838177
-0.18321918 0.0038209911 0.40470073 -0.1327619 0.025945606 -0.99080831 0.1189345
-0.17489268 0.0025398682 0.40406549 -0.17093629 -0.00056686666 -0.98528194 0.0052548414
-0.16711456 0.0044750525 0.40181026 -0.23107213 0.00026281126 -0.97293663 0.0014858718
-0.0038158561 0.003062208 0.40096763 0.56502885 -2.5555292e-07 -0.8250711 0
0.0043193847 0.0042290189 0.40653881 0.56505728 4.3871179e-07 -0.82505167 2.9030041e-05
0.16748458 0.0043432214 0.4079048 -0.4554154 -0.24896927 -0.85475791 0.16908678
0.17488883 0.0049896957 0.40564048 -0.410932 -0.20784998 -0.88765609 0.16269343
0.18477581 0.0048501729 0.40415055 -0.29604024 -0.57477182 -0.76288772 0.22770342
0.19584718 0.0071237311 0.40730196 -0.77795094 0.62291002 -0.08231245 0.27947536
0.202189 0.0087169372 0.4050118 -0.91074282 0.3903662 -0.13476562 0.23843791
-0.25512838 0.014276781 0.40498024 0.91113645 -0.12331235 0.39322314 0.06111861
-0.20190775 0.015752908 0.40347826 0.40469247 0.30909586 -0.86062986 0.12407871
-0.19638073 0.015032254 0.40470076 0.3226606 0.22838053 -0.91854906 0.17175473
-0.18652537 0.015444669 0.40470076 -0.1808382 0.1876583 -0.96544385 0.10224385
-0.17650583 0.015309197 0.40435639 -0.21414582 0.057219945 -0.9751243 0.012632359
-0.16517484 0.014225936 0.40120283 -0.27145395 0.026388425 -0.96208954 0.0031761208
-0.0015165064 0.015214875 0.40254229 0.56502599 -5.9727736e-06 -0.825073 0
0.0045673843 0.015145817 0.40670863 0.56504202 -4.3692035e-06 -0.82506216 1.2802055e-05
0.16579512 0.015703272 0.40853262 -0.40187058 -0.25531793 -0.87938207 0.06420666
0.1750045 0.015559251 0.403207 -0.44449866 -0.36747617 -0.8169347 0.10519521
0.20905554 0.010189287 0.40622836 -0.94816595 0.31218109 -0.059365537 0.19725667
0.21517131 0.01379226 0.40483919 -0.93115568 0.31242087 -0.18799561 0.16622415
-0.25512838 0.025554352 0.40487993 -0.71758574 0.41454208 -0.55966562 0.073214687
-0.21468757 0.029537473 0.40006506 0.24758598 0.56980574 -0.78359592 0.059694864
-0.20225051 0.024188709 0.4058727 0.22999166 0.35401073 -0.90652096 0.15778548
-0.19400026 0.024246596 0.40470076 -0.059410363 0.30995813 -0.94889212 0.13812271
-0.18448263 0.025580209 0.40470073 -0.28398889 0.30339178 -0.90956235 0.078485481
-0.17419314 0.025266247 0.40391329 -0.24745236 0.15821457 -0.95589507 0.031108895
-0.1664955 0.027293002 0.40161642 -0.31403682 0.079116128 -0.94610858 0.010955761
-0.0019799483 0.024320997 0.40222493 0.55444628 0.052305836 -0.8305741 0.0046795118
0.0051671499 0.024717303 0.40711936 0.55967605 0.031582519 -0.82810944 0.0029070408
0.16483566 0.02437599 0.40892142 -0.42016312 -0.1835089 -0.88869995 0.028363233
0.17466481 0.024832308 0.40330848 -0.50680643 -0.17803909 -0.84347451 0.02639145
0.21732864 0.025352195 0.40479499 -0.84713596 0.4796702 -0.22864191 0.14999084
0.22020213 0.025159519 0.4005765 -0.87704784 0.39412063 -0.27469283 0.15492989
-0.2541379 0.032667398 0.40515172 -0.62300563 0.53504974 -0.57060122 0.08695066
-0.24502294 0.034737282 0.40492627 -0.35096192 0.65301895 -0.67111248 0.071623005
-0.23570898 0.035477366 0.40587482 -0.18584362 0.71714264 -0.67169088 0.038901921
-0.22409014 0.034299355 0.40429968 0.12505236 0.70821649 -0.69483185 0.029082645
-0.21576504 0.035369672 0.40565977 0.18954843 0.68346953 -0.70494032 0.06134966
-0.20335552 0.034646895 0.40568715 0.029824374 0.53523964 -0.84417361 0.11464582
-0.19592755 0.035627212 0.40665597 -0.092833571 0.53073084 -0.8424409 0.12521653
-0.18562475 0.035713967 0.40708268 -0.34910339 0.47897786 -0.8054235 0.066404283
-0.17554578 0.035187077 0.40497559 -0.32958999 0.37183815 -0.86781728 0.053036205
-0.16516356 0.033670824 0.40119931 -0.36821049 0.19184162 -0.90973502 0.033240102
-0.0031380176 0.036053762 0.40143186 0.49592718 0.24842834 -0.83206952 0.034619126
0.0057751238 0.034413375 0.40753576 0.52758592 0.19986284 -0.82565612 0.028555045
0.16597922 0.033480849 0.40824535 -0.48567924 0.1596116 -0.85944152 0.038759053
0.17522646 0.035292845 0.4028368 -0.53340012 0.18075776 -0.82632375 0.035831187
0.21720864 0.035474446 0.4047865 -0.93338126 -0.007965941 -0.35879791 0.16729593
0.22027811 0.033745352 0.40030807 -0.97189945 -0.017382121 -0.23475382 0.17177163
-0.17530082 0.044138379 0.4060899 -0.37902418 0.54466426 -0.74811864 0.076515861
-0.16498779 0.044003174 0.40114427 -0.3963688 0.43682921 -0.80750978 0.061676484
-0.040249851 0.049892001 0.40111718 0.077577114 0.91699988 -0.39127117 0.0092787724
-0.037980132 0.049592666 0.40056193 0.074576594 0.91665536 -0.39265931 0.0099999635
-0.022773374 0.049267828 0.40124524 0.23155142 0.81881052 -0.52529347 0.04902593
-0.013761942 0.049292099 0.4022181 0.27840862 0.73720229 -0.61564726 0.060044076
-0.0036822141 0.046597291 0.40197769 0.43079513 0.55321419 -0.7130003 0.057740226
0.0049980651 0.044174254 0.40700358 0.47239354 0.39479539 -0.78802347 0.049796823
0.16637845 0.04545936 0.40791804 -0.46044058 0.38473728 -0.79998225 0.082831942
0.17345358 0.045647249 0.40379751 -0.53897721 0.40678078 -0.7375859 0.070841387
0.21637245 0.046597175 0.40581208 -0.71404165 -0.59502685 -0.36890048 0.1379606
0.22011128 0.045753121 0.40033394 -0.65552878 -0.70169896 -0.2791068 0.18687163
-0.17390957 0.05345406 0.40640506 -0.41202191 0.6972338 -0.58660299 0.066351578
-0.16446334 0.054648995 0.40411115 -0.35568669 0.67145592 -0.65010303 0.062053982
-0.15525293 0.055709239 0.40487173 -0.22957101 0.83801585 -0.49500167 0.065035425
-0.14319527 0.054760925 0.40378147 -0.10059607 0.85831916 -0.50315869 0.048309367
-0.13580933 0.054751687 0.40431923 -0.034445006 0.87966567 -0.47434351 0.046924885
-0.12440604 0.053836901 0.40296146 -0.066205241 0.87887084 -0.47244364 0.037732691
-0.11441212 0.053918306 0.40418315 -0.02105898 0.91912079 -0.39341256 0.027516782
-0.10394061 0.053262029 0.40352026 0.0091141229 0.92510414 -0.37960407 0.022232361
-0.096276991 0.053877499 0.40590614 0.017314821 0.96739036 -0.25269756 0.0048114331
-0.086412184 0.053694226 0.40642133 0.013611111 0.96259761 -0.27059296 0.0035955738
-0.073980302 0.052966855 0.40577003 0.01838316 0.95929968 -0.281791 0.0029382876
-0.064192191 0.052352317 0.40514749 0.020613108 0.95716602 -0.28880495 0.0023232545
-0.053463668 0.051906765 0.40506268 0.027938373 0.94847101 -0.31562978 0.00097595138
-0.044505842 0.051507756 0.40492114 0.034317199 0.95217556 -0.30361807 0.0019110192
-0.035622917 0.052085109 0.40733016 0.06777887 0.94250309 -0.32725209 0.012456669
-0.025610548 0.0517013 0.40733486 0.11948033 0.91679484 -0.38106653 0.024780558
-0.015531056 0.05111903 0.40682629 0.19356586 0.81847882 -0.54094803 0.052666921
-0.0056516314 0.051333785 0.40838581 0.25367808 0.74405253 -0.61808836 0.066860564
0.0067717116 0.050928216 0.40883842 0.3934941 0.61501253 -0.68331689 0.073589683
0.16520759 0.052917778 0.40841526 -0.33667624 0.6791662 -0.65221345 0.091875575
0.17589653 0.05556418 0.4040544 -0.33428881 0.77703851 -0.53334999 0.074530713
0.1847291 0.0560003 0.40393838 -0.1894812 0.95245069 -0.23860958 0.095972218
0.19369213 0.056000303 0.40473947 0.0063585932 -0.99552941 0.094237931 0.11953441
0.20461854 0.0560003 0.40530425 -0.25212365 -0.95735902 -0.14105812 0.11416392
0.21579528 0.0542183 0.40448046 -0.59540236 -0.77572691 -0.20915009 0.12833156
0.22010793 0.05205486 0.40022388 -0.65520996 -0.66798043 -0.35284838 0.1260744
-0.17457515 -0.05581367 0.41463029 -0.39390376 -0.86464745 -0.31180856 0.051234052
-0.16520953 -0.056500956 0.41479596 -0.33479542 -0.88552111 -0.32212469 0.064905547
-0.15557876 -0.056500945 0.41443232 -0.13103285 -0.94834054 -0.28892997 0.049871001
-0.14484149 -0.056500949 0.41759071 -0.002331668 -0.98749572 -0.15762866 0.015360233
-0.1353775 -0.056500949 0.41526645 0.0024181728 -0.98374236 -0.17956913 0.010864463
-0.1256274 -0.056500949 0.41462588 0.0076493905 -0.97821748 -0.20744155 0.0086958576
-0.11418009 -0.056500949 0.41700384 0.0045228703 -0.98671275 -0.16241142 0.0051350603
-0.10390855 -0.056237698 0.4129155 0.020214621 -0.98023385 -0.19680707 0.0049563358
-0.094865501 -0.056392025 0.41583723 0.0067893285 -0.98497456 -0.17256597 0.005602642
-0.086414196 -0.056265727 0.41567647 0.022713728 -0.98296005 -0.18241069 0.0055981558
-0.075994782 -0.056500953 0.41734734 0.022880645 -0.9836818 -0.17845608 0.0061494135
-0.063711196 -0.055493921 0.41424218 0.02221082 -0.96846694 -0.24814989 0.0043409779
-0.056002643 -0.055732001 0.41611239 0.027351975 -0.97604102 -0.21586074 0.0051157214
-0.045808434 -0.055397931 0.41560832 0.018838257 -0.97334909 -0.22855352 0.0048675006
-0.035642523 -0.055450317 0.41664165 0.025301056 -0.97474295 -0.22189194 0.004865611
-0.025092529 -0.05351039 0.41327146 0.055149857 -0.93988919 -0.33699676 0.015291821
-0.015386046 -0.053920485 0.41516837 0.11168043 -0.92375195 -0.36634675 0.031907812
-0.0040732184 -0.053793926 0.41593289 0.2017507 -0.86750448 -0.45467854 0.045840167
0.0047364784 -0.053521976 0.4160119 0.28694332 -0.78240293 -0.55272877 0.067246079
0.012916672 -0.052199345 0.4152399 0.35427275 -0.59674615 -0.71998954 0.068889521
0.022276871 -0.051931102 0.41883641 0.357683 -0.5632726 -0.7448402 0.079522781
0.13915013 -0.053393938 0.41927633 -0.27425203 -0.67198855 -0.68790781 0.090766691
0.14468418 -0.054665912 0.41777137 -0.27665344 -0.72587043 -0.62974203 0.10341837
0.15495832 -0.053790476 0.41432133 -0.31633601 -0.60110974 -0.73389274 0.086158514
0.1645034 -0.056179915 0.4145374 -0.34183094 -0.71105093 -0.61445761 0.093282543
0.1755739 -0.056500945 0.41490945 -0.13499664 -0.96309054 -0.23287883 0.10049843
0.18420815 -0.056500945 0.41550806 -0.023473738 0.99450886 0.10198627 0.097979739
0.19480875 -0.056500945 0.41511881 -0.2057385 0.96888477 -0.13760035 0.12549779
0.20510294 -0.05574904 0.41587722 -0.46270618 0.81563848 -0.34732804 0.10960595
0.21111645 -0.054109812 0.41263199 -0.68347138 0.61100328 -0.39942694 0.078065507
-0.25305706 -0.041624021 0.41814223 0.56728858 0.74710351 0.34643903 0.072883725
-0.24562347 -0.041207667 0.41609395 -0.45979664 -0.7747556 -0.43398246 0.080622919
-0.23361841 -0.041454189 0.41668907 -0.13106669 -0.90117007 -0.41317531 0.033805832
-0.22484934 -0.041320384 0.41636598 0.052633725 -0.89457035 -0.44381708 0.029787173
-0.21365653 -0.041333828 0.4163985 0.14199534 -0.88290942 -0.44755805 0.096723601
-0.20496564 -0.042015623 0.41821051 0.0045307851 -0.89553291 -0.4449721 0.12098515
-0.19596592 -0.04035987 0.41404712 -0.25326157 -0.72647363 -0.63882285 0.13579504
-0.1842325 -0.041481864 0.41675586 -0.3874771 -0.80235922 -0.45396155 0.090747632
-0.17634426 -0.044506013 0.41447634 -0.39846352 -0.73187196 -0.55280221 0.061882067
0.0097225904 -0.041739061 0.41023904 0.47248155 -0.37254202 -0.79873252 0.054969158
0.01546278 -0.044058137 0.41417006 0.50657415 -0.37056381 -0.77850181 0.056139596
0.021380669 -0.043015555 0.4182227 0.4099119 -0.29025465 -0.86471063 0.062412359
0.13863848 -0.042910643 0.41954464 -0.23681967 -0.33173603 -0.91316354 0.071001694
0.1453435 -0.047101267 0.41716343 -0.28511852 -0.49159446 -0.82282573 0.08598619
0.15541784 -0.045333847 0.41318664 -0.34690168 -0.41960406 -0.83880365 0.076289199
0.20768207 -0.044715017 0.41850808 -0.73133522 0.39439031 -0.5564217 0.065437578
0.21168625 -0.044780739 0.41273984 -0.79866511 0.36847553 -0.47577277 0.11235634
-0.25389552 -0.03604459 0.41292983 -0.56065708 -0.68735993 -0.46173576 0.079536021
-0.24726321 -0.038963273 0.41181722 -0.45613375 -0.74854392 -0.48127326 0.081046224
-0.23594141 -0.038629323 0.41138199 -0.18266991 -0.81079566 -0.55609554 0.044960335
-0.22766745 -0.038227797 0.41085872 0.044142623 -0.82365805 -0.56536609 0.019653853
-0.21308124 -0.038086046 0.41067398 0.18801829 -0.77087933 -0.60860014 0.088050611
-0.20467333 -0.036554486 0.41395015 0.089564487 -0.80600506 -0.58509326 0.1211895
-0.19619207 -0.03881846 0.41162851 -0.24200305 -0.73059422 -0.63848764 0.13950416
-0.18351328 -0.039010178 0.41187835 -0.37482926 -0.6018852 -0.70515043 0.092091464
0.0095550455 -0.030400679 0.41012427 0.5564124 -0.11300347 -0.82318616 0.016629567
0.015131498 -0.034749202 0.41394314 0.51776618 -0.12817034 -0.84586674 0.019433418
0.021889165 -0.035347603 0.41857094 0.47944188 -0.18849075 -0.85709202 0.038015388
0.13834281 -0.037520722 0.41968384 -0.30120754 -0.19176243 -0.93407774 0.037800334
0.14579003 -0.035065971 0.41711265 -0.35066152 -0.16247499 -0.92230058 0.03629715
0.15551852 -0.034214061 0.41322285 -0.37920099 -0.10017256 -0.9198761 0.020210771
0.16200867 -0.03086387 0.41020477 -0.44084442 -0.074588999 -0.89447898 0.025415191
0.20734274 -0.035159618 0.41911757 -0.80408192 0.065420389 -0.59090823 0.026161645
0.21131833 -0.034793489 0.41346252 -0.85029554 0.086667836 -0.51912051 0.081369594
-0.25512838 -0.023925595 0.41680497 0.91926348 0.31422895 0.2370968 0.064258218
-0.20265368 -0.024172094 0.41412851 0.48098481 -0.49724191 -0.72208327 0.22770385
0.015776591 -0.024808109 0.41438493 0.54746872 -0.01298207 -0.83672547 0.00061703293
0.021946177 -0.024635486 0.41860998 0.47561407 -0.017779374 -0.87947434 0.0065449718
0.1449053 -0.024747815 0.41750675 -0.39200252 0.13922323 -0.90936846 0.039764039
0.15517472 -0.024992459 0.41347596 -0.36184001 0.13215886 -0.92282498 0.023414055
0.16111338 -0.027728399 0.41066575 -0.4061999 0.072620548 -0.91089398 0.015486186
0.20845418 -0.023572033 0.41777706 -0.79909652 -0.25298542 -0.54538345 0.040439963
0.21192911 -0.026919629 0.41270867 -0.85673326 -0.20258245 -0.47430834 0.082014702
-0.25512838 -0.016586568 0.41471004 0.9532792 0.21025383 0.21691503 0.055319659
-0.20265369 -0.016149472 0.41603932 0.99420702 -0.082375132 -0.069041222 0.13162334
0.015646528 -0.016178263 0.41429582 0.55156189 -0.0020150605 -0.83413154 0.00028180837
0.02140139 -0.014257204 0.41823688 0.48809108 0.0018578336 -0.87279075 0.0054323762
0.13868311 -0.012914121 0.41973639 -0.35526949 0.21185508 -0.91044009 0.11333103
0.14773054 -0.013628875 0.41661608 -0.33585569 0.27400017 -0.90117967 0.11327873
0.15777241 -0.015204353 0.41236129 -0.33740529 0.35831836 -0.87049735 0.10175879
0.16108786 -0.014625127 0.41080421 -0.37868851 0.37026459 -0.84823304 0.10754164
0.20894705 -0.014460414 0.41624916 -0.8067795 -0.25354975 -0.53368473 0.093230486
0.21243565 -0.016337235 0.41215736 -0.85142565 -0.37030834 -0.37141085 0.10377935
-0.25512838 -0.0048285522 0.41420624 0.98163795 0.027525568 0.18875727 0.025297666
-0.20265368 -0.0041313414 0.41494623 0.99441499 0.003444812 -0.10548458 0.10913396
0.013949428 -0.0057880431 0.41313362 0.55514258 -0.00024834729 -0.83175516 0.00028283449
0.02205346 -0.0064404728 0.41868344 0.48311719 -0.0007641447 -0.87555534 0.0051808706
0.1390819 -0.0055156392 0.41969717 -0.31471443 0.29958278 -0.90066922 0.16100843
0.14359841 -0.0052255755 0.41844708 -0.35653475 0.21932097 -0.90817475 0.17083322
0.15517196 -0.0046265456 0.41500854 -0.30288562 0.15405162 -0.9404937 0.15705891
0.16491598 -0.0015212726 0.41519403 -0.35563281 0.42201361 -0.83392435 0.24861136
0.17431565 -0.0021399681 0.41622111 -0.011376658 -0.95716822 -0.28930894 0.26154542
0.18554968 -0.0048215445 0.41432819 -0.023468962 0.94655097 -0.32169947 0.22458433
0.19443403 -0.0068385052 0.41432363 -0.4857603 -0.86725277 0.10913093 0.2761468
0.20379089 -0.0089249043 0.41619042 -0.90818685 -0.28076702 -0.31042969 0.16480178
-0.25512838 0.0086962786 0.41288084 0.98096716 -0.052094791 0.18705498 0.02648955
-0.20265366 0.0051206355 0.41370389 0.99327201 -0.027566031 -0.1124756 0.17108206
0.014841674 0.0051265187 0.41374463 0.55001235 0.0012158132 -0.83515561 0.00029228101
0.021731079 0.0071256496 0.41846269 0.48653924 0.0083168522 -0.87361914 0.0054520941
0.13891542 0.0048613581 0.41972557 -0.3383595 -0.24539739 -0.90845639 0.16858165
0.14633591 0.0032630276 0.41718745 -0.35423678 -0.14874494 -0.92325038 0.15577491
0.15527101 0.0028045243 0.41375455 -0.29063517 -0.14468676 -0.94583136 0.18899256
0.16364285 0.0012043613 0.41349426 -0.38335347 -0.07955835 -0.92016882 0.19356462
0.17586571 0.0020725741 0.41506204 -0.015393079 0.9996509 -0.021476885 0.23479129
0.18493627 0.0042073978 0.41392428 0.015906436 -0.96833754 -0.2491374 0.23054093
0.19660394 0.0067911376 0.41490403 -0.83669841 0.51049024 -0.19833155 0.24432245
0.20546022 0.0086906161 0.41724905 -0.84981561 0.26025158 -0.45834768 0.15019707
-0.25512838 0.014820006 0.41489631 0.96337348 -0.1228982 0.23834339 0.04570508
-0.20265371 0.013573188 0.41461235 0.98091352 -0.022298397 -0.19316144 0.15708417
0.0094435206 0.012430065 0.41004792 0.55815822 -0.00017419501 -0.8297345 0.00017058708
0.01555419 0.014130296 0.41423264 0.55057549 0.001080408 -0.83478469 0.00027080718
0.022639785 0.013474317 0.41908497 0.48338228 -0.013950758 -0.8752982 0.0058307056
0.13890927 0.014574732 0.41964388 -0.36465895 -0.28443563 -0.88663417 0.099124774
0.14487939 0.015600243 0.41758615 -0.35498202 -0.24128491 -0.90319949 0.083261125
0.15459971 0.014881636 0.4138166 -0.31251818 -0.33313864 -0.88957912 0.098068573
0.16092575 0.014316474 0.41087887 -0.41157582 -0.2928786 -0.86303377 0.095518753
0.20858723 0.013641958 0.41778222 -0.81864828 0.29425466 -0.49318263 0.088197313
0.21162847 0.014415132 0.412947 -0.89775681 0.31389484 -0.30903497 0.13020504
-0.25512838 0.028709436 0.41341603 0.88798195 -0.36591443 0.27855805 0.073812738
-0.20265369 0.025028961 0.41403437 0.50358039 0.4198136 -0.75509155 0.23240186
0.0139229 0.025051812 0.41311541 0.55272031 0.034852635 -0.83263767 0.0028015818
0.021138361 0.023049403 0.41805679 0.48836631 -0.0068987892 -0.87261146 0.0055941152
0.13845915 0.027288767 0.41971087 -0.35089964 -0.09198992 -0.93188375 0.034306891
0.14598243 0.023708029 0.41713342 -0.36982319 -0.1682089 -0.91374868 0.045049611
0.15610872 0.024316391 0.41305491 -0.38448563 -0.18369623 -0.90466923 0.03485192
0.162219 0.021911394 0.4101961 -0.39097381 -0.21360719 -0.89527166 0.036168292
0.2084897 0.022969468 0.4177497 -0.81859267 0.21247669 -0.53362882 0.031908508
0.21223252 0.024358494 0.4123005 -0.84341824 0.30510598 -0.44221714 0.088327415
-0.25512838 0.034896616 0.41359365 0.73515856 -0.5514248 0.39430004 0.08839827
-0.23323956 0.039279256 0.41041338 -0.10861669 0.83919716 -0.53286999 0.018333107
-0.22587353 0.038974103 0.4100157 0.077748887 0.82173896 -0.56453544 0.023469754
-0.2186731 0.039554775 0.41077244 0.12641597 0.83415371 -0.53684866 0.042982358
-0.20272411 0.035282012 0.41464207 -0.016629832 0.76072991 -0.64885545 0.174532
-0.18943505 0.039414674 0.41058987 -0.27547097 0.66859782 -0.69071901 0.10565689
-0.17827511 0.039184157 0.41028947 -0.3585673 0.57810497 -0.73295569 0.071706481
0.009477539 0.030780377 0.41007122 0.5437538 0.10346319 -0.83284277 0.013975385
0.014924021 0.033349875 0.41380107 0.52170753 0.14128432 -0.84134412 0.023079846
0.021968519 0.035292007 0.41862527 0.45557934 0.19372176 -0.86886096 0.040739562
0.1378752 0.030366203 0.4198902 -0.3598066 -0.027794894 -0.93261278 0.02871944
0.14433731 0.034443684 0.41762033 -0.33467168 0.15588407 -0.92935193 0.031196045
0.15369239 0.034061179 0.4140588 -0.38806778 0.10497609 -0.91563278 0.01981795
0.16167305 0.03340872 0.41033182 -0.43069309 0.15739866 -0.88866705 0.036968954
0.20818333 0.035119765 0.41797218 -0.79413754 -0.098940097 -0.59963024 0.024484644
0.21150446 0.034865931 0.41317862 -0.84932739 -0.089076146 -0.52029663 0.083627433
-0.25436017 0.041508522 0.41583514 0.70372653 -0.62631238 0.33541283 0.087783381
-0.24511361 0.042648841 0.41622305 -0.39270353 0.82531786 -0.40575141 0.070191659
-0.2359689 0.042555377 0.41614613 -0.18782483 0.873649 -0.44884196 0.041061025
-0.22363746 0.042807471 0.41671753 0.1247078 0.89987814 -0.4179323 0.040443081
-0.21505275 0.042668797 0.41640601 0.16807869 0.90163177 -0.39850929 0.072198614
-0.20418192 0.041920554 0.4147824 0.04081535 0.82714689 -0.56050164 0.12759763
-0.19401279 0.043128427 0.41736761 -0.24004687 0.87484026 -0.42075169 0.10566168
-0.18454795 0.042167466 0.4151732 -0.45141348 0.72242391 -0.52376485 0.069869258
-0.17681369 0.044233326 0.41403946 -0.3561981 0.73878634 -0.57211685 0.062022209
0.014275384 0.046113364 0.41335687 0.47468603 0.42006853 -0.77344394 0.05797445
0.022129385 0.047047645 0.41873541 0.38384515 0.50933039 -0.77022433 0.083725885
0.14405411 0.046415024 0.4176164 -0.32250497 0.45773694 -0.82853335 0.090714887
0.15468979 0.046979822 0.41348839 -0.39573523 0.3855302 -0.83352268 0.080691777
0.16180146 0.042991146 0.41016674 -0.44804424 0.32107678 -0.83436573 0.075386822
0.20808464 0.044100806 0.41797736 -0.7161541 -0.35976934 -0.59807134 0.054456677
0.21216139 0.045404747 0.41202116 -0.75099236 -0.49098045 -0.44152987 0.10856733
-0.17393602 0.055841602 0.41559303 -0.38966405 0.849024 -0.35681975 0.049317688
-0.16449083 0.056500949 0.41686893 -0.32929999 0.89350694 -0.30529797 0.05442524
-0.15612701 0.056500949 0.41429961 -0.20965677 0.9247306 -0.31767502 0.052342419
-0.14627989 0.056500953 0.41465792 -0.048478343 0.95565605 -0.29046759 0.044619292
-0.13359745 0.056500945 0.41526625 -0.020266822 0.9828577 -0.18324845 0.011824728
-0.12619488 0.056500945 0.41400155 -0.0062605483 0.98168588 -0.19040391 0.010450477
-0.11629328 0.056500945 0.41352949 0.017357536 0.97974437 -0.19949879 0.0076336013
-0.1043448 0.056500945 0.41589707 0.013883309 0.98930508 -0.14519863 0.0042924187
-0.094918497 0.056368422 0.4161492 0.012485142 0.98849005 -0.15076961 0.0044994825
-0.084788084 0.056291204 0.41574344 0.00093732821 0.98562604 -0.16893895 0.0041785031
-0.075005814 0.055942331 0.41447574 0.023222186 0.97944427 -0.20037358 0.0044075954
-0.064435586 0.055729456 0.41496581 0.023741089 0.97806954 -0.2069212 0.0046844175
-0.055722237 0.05528862 0.41369554 0.022645585 0.97387946 -0.22593369 0.0042525716
-0.044910844 0.055812679 0.41644782 0.014329232 0.98036307 -0.19667971 0.0044767628
-0.033907849 0.054889169 0.41485006 0.034791697 0.96834379 -0.24718377 0.003371198
-0.025670776 0.054602563 0.41493025 0.037945587 0.96643066 -0.25410995 0.0033105796
-0.016006393 0.054172013 0.41477731 0.087351091 0.92579043 -0.36780688 0.023417817
-0.0040419572 0.054470818 0.41676754 0.16002984 0.88637692 -0.43442667 0.051886231
0.004989448 0.053580105 0.4153451 0.33476645 0.74193227 -0.58091998 0.069921173
0.013940901 0.052968409 0.41563776 0.35636187 0.6721788 -0.64898533 0.0698952
0.021280356 0.052677967 0.41869897 0.35645777 0.54486763 -0.75898427 0.082565047
0.13861208 0.05234481 0.41946951 -0.2758013 0.50360405 -0.81872869 0.099543884
0.14535446 0.054289579 0.41740268 -0.28442124 0.62645316 -0.72571409 0.09805344
0.15642573 0.054324564 0.4141216 -0.19544248 0.78131056 -0.59275305 0.077472202
0.16424625 0.055831276 0.41442856 -0.20476258 0.84640557 -0.49159944 0.085697159
0.17559335 0.0560003 0.41693503 -0.058198813 0.98127222 -0.18362378 0.094397396
0.18388334 0.0560003 0.41672063 -0.055463757 -0.99518985 0.080752522 0.11298863
0.19413333 0.0560003 0.41616321 -0.28936863 -0.95179778 -0.10171947 0.10292453
0.20517696 0.055719987 0.41527146 -0.34974343 -0.89128894 -0.28858876 0.10195436
0.2115113 0.056000307 0.41048485 -0.43315455 -0.84671509 -0.30895078 0.11192457
-0.17502095 -0.055162575 0.4237043 0.40645307 0.89761007 0.1705635 0.039315715
-0.16385379 -0.056500945 0.42654058 0.27624524 0.95847291 0.070838749 0.026784599
-0.15572624 -0.056500945 0.42396334 0.1472656 0.98220837 0.11653142 0.025933031
-0.14608301 -0.056500949 0.4261592 0.010316007 0.99882466 0.047358323 0.0017381081
-0.13648416 -0.056500945 0.42484614 -0.0092401812 0.99778509 0.065875389 0.0025418017
-0.12478676 -0.056500949 0.42365709 -0.0048986655 0.99653071 0.083081573 0.0032649846
-0.1158366 -0.056500949 0.42637718 -0.00013330934 0.99859977 0.052900594 0.0019657281
-0.10588098 -0.056500949 0.42484587 -0.0027550065 0.99540657 0.09569791 0.0034261865
-0.094268061 -0.056500949 0.42372221 -0.0035215325 0.99265343 0.1209417 0.0047273571
-0.086351126 -0.056500945 0.42398787 -0.013168682 0.99313289 0.11624802 0.0045958031
-0.076016568 -0.056500956 0.42411762 -0.018045504 0.99453747 0.10280876 0.0035873959
-0.064854153 -0.056500949 0.42306712 0.016704319 -0.98938107 -0.14438179 0.0051030484
-0.052984163 -0.056500945 0.42495823 -0.0028177057 0.99157983 0.12946668 0.0048836321
-0.043451875 -0.056500945 0.42677239 -0.0082526719 0.99170381 0.12827885 0.0048960573
-0.034496997 -0.056500956 0.42543876 0.014452929 -0.99014753 -0.13927974 0.0051077227
-0.024733089 -0.056500949 0.42517015 0.011624292 -0.98880708 -0.1487464 0.0046307221
-0.013945176 -0.056457113 0.42417243 0.020636709 -0.97940099 -0.20086749 0.0061530513
-0.0043823025 -0.056456972 0.42446026 0.10709771 -0.95922136 -0.26158074 0.025979953
0.0048037968 -0.056222081 0.42424637 0.16381042 -0.91777378 -0.36174205 0.055328619
0.015013541 -0.056303203 0.42539814 0.20767759 -0.89816546 -0.3875162 0.065627925
0.02772879 -0.054753184 0.42462787 0.20386609 -0.77926165 -0.5926128 0.075003155
0.033230927 -0.054971367 0.4257153 0.17048503 -0.67902893 -0.71404094 0.090300269
0.0440524 -0.054814134 0.42700982 0.11031803 -0.79606587 -0.59507066 0.081367277
0.054938331 -0.055410191 0.4271113 0.073221095 -0.77472305 -0.62804687 0.084612392
0.065880835 -0.056118201 0.42686334 0.080163546 -0.80710644 -0.58493853 0.089216068
0.074300639 -0.052206259 0.42572275 0.16905269 -0.49866647 -0.8501488 0.12229351
0.085086323 -0.054269802 0.42657828 0.0053214328 -0.64637595 -0.76300049 0.17477491
0.09310852 -0.053748101 0.42743006 -0.032112379 -0.73715585 -0.67495936 0.15000078
0.10606157 -0.05494288 0.42661327 -0.18982549 -0.65816307 -0.72855181 0.088054791
0.11404122 -0.054289099 0.42602074 -0.09521988 -0.71319586 -0.69446737 0.07734514
0.12488506 -0.054918885 0.4248471 -0.1381736 -0.72062224 -0.67941999 0.07619448
0.13551176 -0.055285998 0.4241617 -0.14110932 -0.81123781 -0.56743407 0.074585952
0.14429675 -0.056500949 0.42557949 -0.2231008 -0.85239887 -0.47290829 0.083649591
0.15663719 -0.056500949 0.42402697 -0.19265532 -0.89502031 -0.40227181 0.075680308
0.16467285 -0.056500953 0.42490816 -0.084404156 -0.95466459 -0.28546706 0.082938321
0.17520997 -0.056500949 0.4258458 -0.061951831 0.9945004 -0.084444366 0.062439568
0.18450642 -0.056500945 0.42577708 -0.19726171 0.9620775 -0.18840061 0.085784316
0.1958956 -0.055611569 0.42473862 -0.45878324 0.83904755 -0.29243317 0.10567402
0.2026141 -0.055568613 0.42303875 -0.53601062 0.71236831 -0.45301661 0.074865587
-0.25366214 -0.044145111 0.42830554 0.65702903 0.74360347 0.12396296 0.072401375
-0.24281047 -0.04472363 0.426321 0.29298142 0.93724102 0.18905349 0.056717154
-0.2353375 -0.044490278 0.42512774 -0.20269172 -0.94558382 -0.25453335 0.045935195
-0.22295532 -0.044445205 0.42516324 0.083573297 -0.96506983 -0.24830592 0.033883106
-0.21331079 -0.044449322 0.4251287 0.16141051 -0.95875603 -0.23395176 0.091385439
-0.20377402 -0.043495957 0.42378786 -0.077563204 -0.97025925 -0.22930546 0.12983114
-0.19692099 -0.04477194 0.42578262 0.33046669 0.9356243 0.12409229 0.10546754
-0.18491133 -0.043851823 0.42263189 -0.40128553 -0.85289365 -0.33397955 0.090621173
-0.17694147 -0.046332531 0.42417872 -0.3998819 -0.8654353 -0.30185458 0.056306325
0.02717684 -0.042911537 0.42219204 0.40302062 -0.36154827 -0.84074795 0.079821907
0.033093333 -0.045818087 0.42543587 0.22796333 -0.51958829 -0.82344443 0.091339327
0.044958476 -0.04366298 0.42573208 0.14567417 -0.29310831 -0.94491619 0.068210848
0.053078752 -0.045155246 0.42571208 0.034423426 -0.35814178 -0.93303245 0.068742365
0.066629112 -0.046056617 0.42567891 0.15884268 -0.3583473 -0.91997629 0.088932753
0.075366601 -0.043680348 0.42565751 0.25172377 -0.2425727 -0.93690634 0.11370946
0.086226411 -0.04307019 0.42626479 -0.040967442 -0.1617475 -0.98598146 0.16096936
0.093603723 -0.045857035 0.42674243 -0.14771092 -0.33028662 -0.93225116 0.18730257
0.10745957 -0.04346662 0.42579135 -0.20598121 -0.26883459 -0.9409036 0.076679528
0.11589482 -0.045472011 0.42481917 -0.15586767 -0.39363801 -0.90595496 0.05977584
0.12718016 -0.043575812 0.42256308 -0.24028111 -0.38673812 -0.89033628 0.076812483
0.13383403 -0.043346614 0.42100617 -0.24277809 -0.45751467 -0.85541755 0.087458447
0.19947623 -0.046997577 0.42830187 -0.67989659 0.41435137 -0.60502356 0.067822881
0.20347589 -0.045726195 0.4235509 -0.73805767 0.37915853 -0.55813056 0.064874269
-0.25512838 -0.03559389 0.42457318 0.88833344 0.42516783 0.17348199 0.078118473
-0.20265368 -0.035699859 0.42537802 0.23226823 0.96129239 0.14821762 0.19503671
0.026913989 -0.03464561 0.42201203 0.35833564 -0.14523378 -0.92222708 0.040379781
0.03572413 -0.03533335 0.42575446 0.26885673 -0.19577561 -0.94307369 0.048869859
0.045441207 -0.034233961 0.42573085 0.12616821 -0.08350046 -0.98848838 0.018804355
0.056480654 -0.034398735 0.42570379 0.044719551 -0.133857 -0.98999113 0.02952672
0.065822594 -0.034507681 0.42568088 0.14768149 -0.13094951 -0.98032767 0.045276605
0.074294657 -0.035112131 0.4256601 0.21937372 -0.10947874 -0.96947908 0.070870399
0.085614659 -0.034744602 0.42633688 0.079035327 -0.033145763 -0.99632066 0.12602605
0.093168162 -0.036506601 0.42638204 -0.10113345 -0.036470532 -0.99420416 0.13535392
0.10502265 -0.03382808 0.42609119 -0.30449992 -0.031774566 -0.95198226 0.077128284
0.11541363 -0.035052758 0.42491791 -0.21123283 -0.12632568 -0.96923816 0.047355577
0.12402488 -0.037169807 0.42332497 -0.303431 -0.17635641 -0.936391 0.058214106
0.13310604 -0.035046551 0.42122474 -0.24699132 -0.090569519 -0.96477586 0.041296661
0.19973609 -0.032042809 0.42822486 -0.76398301 0.040230554 -0.64398092 0.021813016
0.2027906 -0.035689536 0.42452765 -0.7693398 0.17714748 -0.61378753 0.035851743
-0.25512838 -0.023368116 0.42413932 0.95080227 0.27980831 0.13297488 0.056985483
-0.20265368 -0.026039224 0.42520902 0.99278653 -0.074876375 0.093640111 0.17701112
0.028485211 -0.022127902 0.42308804 0.35383925 0.015740568 -0.93517381 0.012107536
0.034904338 -0.02559085 0.42555788 0.26507175 -0.0070932787 -0.96420258 0.01050384
0.045727704 -0.023973754 0.42573017 0.12565212 -0.0031177478 -0.99206942 0.005763914
0.05603388 -0.023175908 0.42570493 0.01478022 -0.00061364734 -0.99989057 0.00046339617
0.065189473 -0.025103379 0.42568243 0.17876771 -0.012657997 -0.98380983 0.036246464
0.075945683 -0.025299022 0.42565602 0.2939713 -0.032093391 -0.9552753 0.081690907
0.086320713 -0.02447924 0.42595157 0.068979174 0.023098821 -0.99735063 0.1687869
0.093116231 -0.025195483 0.42659122 -0.12218647 0.084938474 -0.98886597 0.17251427
0.10554911 -0.025415454 0.42605495 -0.23395868 0.13833793 -0.96235436 0.084956944
0.11360858 -0.025499277 0.4251667 -0.16277984 0.23198575 -0.95900226 0.077969603
0.12445676 -0.023756679 0.42329612 -0.26974338 0.28907114 -0.91851854 0.10651691
0.13349099 -0.023679789 0.42117929 -0.31938851 0.19311735 -0.92773741 0.059416015
0.19857442 -0.028466698 0.42966646 -0.76001346 -0.090687625 -0.64354914 0.021969566
0.2028891 -0.023382442 0.42461219 -0.76947385 -0.23706424 -0.59305191 0.040755458
-0.25512838 -0.015950641 0.42662868 0.99583393 0.06928762 0.059278231 0.0098568276
-0.20265369 -0.018148063 0.42595005 0.98749137 -0.1073241 0.11550909 0.063122585
0.027411923 -0.014302413 0.42235303 0.39530846 0.011471385 -0.91847682 0.0090780407
0.0341633 -0.013540094 0.42522991 0.24987918 0.0053600334 -0.9682622 0.011253833
0.044737034 -0.014290235 0.42573258 0.10876998 -0.00018250998 -0.99406689 0.0057376032
0.054635629 -0.015422134 0.42570829 0.035826091 -0.0053585125 -0.99934363 0.0012951373
0.063929245 -0.015074696 0.42568552 0.12386694 -0.031025853 -0.99181372 0.020343114
0.074516781 -0.013290741 0.42565957 0.2569176 0.048241522 -0.9652285 0.08099708
0.086301908 -0.0148205 0.42636821 0.11388022 0.0043939808 -0.9934848 0.13703029
0.09413965 -0.014223668 0.42658815 -0.1589434 0.041916493 -0.9863975 0.1579826
0.10391487 -0.013601427 0.42703199 -0.17022298 0.024230296 -0.98510766 0.13212839
0.11453167 -0.014946189 0.42543009 -0.13494471 0.14714243 -0.97986692 0.12218804
0.12511553 -0.013110013 0.42387897 -0.26550475 0.1280469 -0.95556849 0.12334113
0.13302964 -0.016736984 0.42139685 -0.28000823 0.29052049 -0.91498274 0.10827263
0.19887392 -0.01287111 0.42956242 -0.75768644 -0.29962569 -0.57977206 0.11109402
0.20398894 -0.013457576 0.42346722 -0.80227423 -0.24635342 -0.5437519 0.086166695
-0.25512838 -0.0049922001 0.42783824 1 -4.6853579e-06 -3.3742617e-05 3.5022378e-05
-0.20265368 -0.0053488454 0.42513457 0.98071152 -0.02235049 0.19417885 0.048516009
0.026739703 -0.0051586777 0.42189267 0.3886455 -0.00051783264 -0.9213872 0.012281839
0.034731343 -0.0042613284 0.42547026 0.24563357 0.0080217337 -0.96932954 0.012363454
0.046015672 -0.0063976711 0.42572945 0.10268916 -0.005792405 -0.99469662 0.0055564754
0.055912767 -0.0047196532 0.42570513 0.021536145 0.00024178672 -0.99976802 0.00079736538
0.063720815 -0.003293707 0.42568603 0.13733421 -0.017253151 -0.99037451 0.019474816
0.07410071 -0.0066215969 0.42566058 0.26379105 0.01803159 -0.96441126 0.068793237
0.08595667 -0.0047969823 0.42625415 0.17365666 -0.004398345 -0.98479646 0.11924955
0.094951473 -0.004239609 0.42680657 -0.049964376 -0.004960184 -0.99873877 0.13016942
0.10457973 -0.0048910556 0.42619452 -0.17785498 0.059534885 -0.98225415 0.11913466
0.11544932 -0.0044425563 0.42505002 -0.13809201 0.087757155 -0.98652387 0.15583076
0.1246656 -0.0050764596 0.42359656 -0.19518094 0.12879805 -0.97227341 0.18035923
0.13340972 -0.0059804018 0.42373636 -0.29175627 0.30319181 -0.90716755 0.18590212
0.14596298 -0.0053466293 0.42596188 -0.18573906 0.86966228 -0.45737129 0.20973565
0.15481186 -0.0033196763 0.42541072 -0.15954231 0.9660238 -0.20333299 0.22959279
0.16608001 -0.00083572755 0.42387936 -0.034707043 -0.99757922 -0.060258582 0.18377131
0.17448558 -0.0016253014 0.42525604 -0.062048558 -0.99618596 -0.061348289 0.13330594
0.18470027 -0.0040104468 0.42456609 -0.12340363 -0.9876371 -0.096667022 0.21698739
0.19520512 -0.0064135129 0.42567948 -0.71340954 -0.35879853 -0.60192227 0.18148342
0.2019947 -0.0085608056 0.42572293 -0.74523455 -0.20519599 -0.63444471 0.12112296
-0.25512838 0.0039270716 0.42636162 1 -4.6180576e-06 4.2115782e-05 3.630514e-05
-0.20265368 0.0064286338 0.42470515 0.98045689 0.0019318445 0.19672441 0.047051065
0.027543698 0.0051304493 0.4224433 0.37895778 -0.0022033555 -0.92541134 0.012298561
0.033513628 0.0045219781 0.42533442 0.29858673 0.019849949 -0.95417601 0.012401862
0.043859575 0.0048900149 0.42573473 0.12072762 -0.0055731693 -0.99267006 0.0057788119
0.056840189 0.0038642026 0.4257029 0.061540246 -0.0043718326 -0.99809504 0.0075910413
0.066039905 0.0027894871 0.42568034 0.20175147 -0.026469018 -0.97907901 0.050135877
0.074067228 0.0044783014 0.42566067 0.28214958 -0.0097325193 -0.95932108 0.071362399
0.086487971 0.0047402 0.42633125 0.18956454 -0.0024910653 -0.98186511 0.14893888
0.095167272 0.0049444996 0.42652231 -0.032852788 -0.025961712 -0.99912298 0.1416886
0.10581654 0.0058635692 0.42607066 -0.099122413 -0.059087034 -0.99331945 0.12946737
0.11564157 0.0050516529 0.42503592 -0.11793336 -0.1304158 -0.98442036 0.14182737
0.12535195 0.0058624232 0.42395082 -0.20492584 -0.20197736 -0.9577111 0.15952043
0.13472433 0.0058513866 0.42350408 -0.21381174 -0.2849175 -0.93440169 0.19423801
0.14547132 0.0049640709 0.42612872 -0.30637109 -0.6636554 -0.68242079 0.20431364
0.15542793 0.0026917267 0.42565179 -0.0065717911 -0.9514603 -0.30770138 0.19706649
0.16453849 0.00048807741 0.42311487 -0.0078926384 -0.99209088 -0.12527317 0.18034525
0.17571725 0.001422268 0.42542309 0.0048738196 0.99948508 -0.031715885 0.15278105
0.18523456 0.0036563331 0.42411113 -0.16131859 0.98556507 -0.051359162 0.20673791
0.19341025 0.0054912358 0.42450565 -0.71877533 0.5505954 -0.42450747 0.20822677
0.2025366 0.0084102089 0.4239139 -0.76049465 0.26831335 -0.59131706 0.12815963
-0.25512838 0.014601489 0.42545223 0.99990273 -0.0096988156 0.010020531 0.00024925784
-0.20265366 0.014676078 0.4240883 0.98501861 0.035400629 0.16877578 0.048907731
0.026637938 0.014897648 0.42182297 0.42016649 -0.0096173631 -0.90739614 0.0092849145
0.034625109 0.015472598 0.42546377 0.26776496 0.0040160632 -0.96347588 0.012001355
0.045054376 0.014215989 0.42573178 0.12143462 -0.0068962942 -0.99257547 0.0056423917
0.05409902 0.014393806 0.42570964 0.030478176 0.0030450467 -0.99953079 0.0016761104
0.064111441 0.015365844 0.42568508 0.13968952 0.019924376 -0.98999488 0.031391859
0.075859122 0.013727183 0.42565626 0.38537467 -0.0506761 -0.92136759 0.098657481
0.085740685 0.014938498 0.42648116 0.16326202 -0.035487108 -0.98594427 0.1754528
0.093468621 0.013803746 0.42722312 -0.06989108 0.037424695 -0.99685228 0.16161869
0.10653048 0.014152498 0.42656419 -0.16572236 -0.090132356 -0.98204494 0.12441108
0.11505914 0.014326603 0.42580202 -0.16313156 -0.18637398 -0.96884102 0.1289044
0.12363007 0.014333626 0.42384881 -0.31957543 -0.21802397 -0.92213726 0.11519139
0.13417485 0.014534212 0.42109361 -0.32266021 -0.2429193 -0.91481173 0.11652399
0.19884029 0.019294778 0.42948833 -0.77102333 0.21733691 -0.59857136 0.049835805
0.20274454 0.014669809 0.42491955 -0.8162632 0.23235445 -0.52889109 0.077874549
-0.25512838 0.022416182 0.42728639 0.98745459 -0.14481002 0.062955886 0.029143773
-0.20265366 0.025645992 0.42490757 0.99533135 0.053742487 0.080169789 0.16429104
0.026202735 0.025295194 0.42152497 0.41769624 -0.0067534409 -0.90856159 0.0097731203
0.033977143 0.023870824 0.42572427 0.30698264 -0.024268653 -0.95140564 0.012046753
0.044898827 0.024889519 0.4257322 0.11919663 0.00089093891 -0.99287027 0.0070937565
0.05674364 0.024122201 0.42570311 0.045545958 0.0069156736 -0.99893832 0.0059604305
0.064581349 0.024193611 0.42568392 0.18087861 0.043796357 -0.98252982 0.032142244
0.074358799 0.024519049 0.42565998 0.26770732 0.039686274 -0.96268266 0.068829671
0.085653789 0.025110563 0.42650789 0.19202137 -0.034388039 -0.98078805 0.14631073
0.092819601 0.02527789 0.42687544 -0.12340714 -0.12246027 -0.98477113 0.15887018
0.10340355 0.026030971 0.42626601 -0.23068611 -0.11262603 -0.96648818 0.084087744
0.11342226 0.022118663 0.42519522 -0.18964007 -0.18888918 -0.9635132 0.091148548
0.12504926 0.025516158 0.42315248 -0.29202351 -0.2273379 -0.9289993 0.071904548
0.13452241 0.025717974 0.42094293 -0.34841523 -0.1653011 -0.92264968 0.053119883
0.19861126 0.025368586 0.42966297 -0.77683353 0.17696044 -0.60432994 0.032692932
0.20351647 0.024553053 0.42383817 -0.76799655 0.21902004 -0.6018402 0.039351765
-0.25512838 0.034078408 0.42651787 0.90471536 -0.40445706 0.1338083 0.066701129
-0.20265368 0.034291241 0.42397913 -0.055896152 0.90872341 -0.41363913 0.22464503
0.026438469 0.034572504 0.42168635 0.42321628 0.14307559 -0.89466047 0.0396748
0.033684779 0.033923924 0.42541409 0.3546063 0.15171531 -0.92262501 0.04349231
0.045324262 0.036446955 0.42573115 0.13277198 0.20867419 -0.96893066 0.051137928
0.054002751 0.035620596 0.42570987 0.030288814 0.22188064 -0.9746033 0.045408957
0.06468904 0.033958867 0.42568368 0.17348976 0.069055215 -0.98241168 0.044431679
0.07456784 0.035575129 0.42565945 0.24182062 0.094732024 -0.96568561 0.070270762
0.085465647 0.034566745 0.42635375 0.17944178 0.055100635 -0.98222429 0.13079013
0.093819998 0.033609804 0.42657328 -0.1612726 0.021217117 -0.98668182 0.13394615
0.10642172 0.035774156 0.42591953 -0.27904829 0.061518967 -0.95830446 0.077240638
0.11562641 0.033762053 0.4248786 -0.23533557 -0.030621681 -0.97143167 0.055925675
0.12384088 0.03564341 0.42336813 -0.23797867 0.01339927 -0.971178 0.034794405
0.13308217 0.03650599 0.42122963 -0.24183407 0.1635578 -0.95643359 0.03377388
0.19925781 0.034040827 0.42875656 -0.75510567 -0.11474471 -0.64548367 0.028874526
0.20384566 0.032168284 0.42332101 -0.80045193 0.0051092017 -0.59937519 0.025016699
-0.25408313 0.043477107 0.4233909 0.73199618 -0.65589392 0.18434925 0.092658296
-0.24567133 0.045944475 0.42495382 0.4128527 -0.88638991 0.2094409 0.070229329
-0.23644435 0.045875795 0.42467362 -0.11930212 0.95176959 -0.28266883 0.023475509
-0.22485115 0.045937169 0.42509139 0.097661003 0.97396266 -0.20459485 0.02104588
-0.21451709 0.045620434 0.42402494 0.15902819 0.95199209 -0.26157406 0.076223068
-0.20300193 0.044335172 0.42411378 -0.1300087 0.95231944 -0.27601698 0.1372034
-0.19231193 0.045575354 0.42445186 -0.39348418 0.86368805 -0.3149811 0.089871205
-0.18356204 0.045598034 0.42449263 0.44655299 -0.86198115 0.23995624 0.049534503
-0.17771806 0.04678493 0.424413 -0.34588513 0.86816943 -0.35587254 0.056316219
0.027634978 0.04416059 0.42250577 0.36542422 0.4205648 -0.83041573 0.087586142
0.038027741 0.044655789 0.425749 0.17501125 0.36488125 -0.91445762 0.081229076
0.043441776 0.043149836 0.4257358 0.11395167 0.33447492 -0.93549001 0.078893222
0.055271775 0.044611655 0.42570674 0.0083002951 0.39395165 -0.91909367 0.069489405
0.066487283 0.046732038 0.42567924 0.13877124 0.43606237 -0.88915247 0.093942076
0.074618578 0.046289172 0.42565933 0.17206852 0.2540085 -0.95177317 0.11965252
0.086440958 0.045476943 0.42645866 0.051184323 0.14778717 -0.98769379 0.16971709
0.094566241 0.046981946 0.42635351 -0.18823457 0.23915589 -0.95256084 0.15868133
0.10430103 0.046712179 0.42609268 -0.21407269 0.32581416 -0.92087901 0.11095584
0.1137724 0.045980107 0.42506468 -0.15429273 0.43844339 -0.88541579 0.070808254
0.12418347 0.046032261 0.42322931 -0.19567031 0.44083852 -0.87599915 0.084057815
0.13237767 0.046181493 0.42134929 -0.1797682 0.53100008 -0.82808346 0.094397798
0.19828486 0.043755457 0.42976588 -0.70548284 -0.35488889 -0.61347193 0.061345566
0.20429637 0.04617605 0.42255822 -0.68660778 -0.37545174 -0.62257993 0.068112731
-0.17541184 0.054543197 0.42615196 0.36440498 -0.91267478 0.18502365 0.033340838
-0.16471235 0.056500945 0.4253788 0.303213 -0.94673914 0.1083833 0.027304355
-0.15504485 0.056500953 0.42445216 0.11747956 -0.98615819 0.11700603 0.018891407
-0.14437851 0.056500949 0.42479247 -0.00086566468 -0.99776131 0.066870861 0.0019320856
-0.13381122 0.056500949 0.42342156 -0.0070098317 -0.99703979 0.076567538 0.002281059
-0.12745945 0.056500949 0.42544547 -0.0029058785 -0.99784309 0.065580554 0.0019361642
-0.11479475 0.056500949 0.42398143 -0.011678819 -0.99691349 0.077634752 0.0024601263
-0.10540177 0.056500949 0.42644364 -0.0041564852 -0.99834597 0.05734155 0.0020207383
-0.09584523 0.056500945 0.42481628 -0.0074310619 -0.99521244 0.097452246 0.0032647899
-0.084504634 0.056500945 0.424317 -0.015704628 -0.99531072 0.0954464 0.0030333074
-0.07559035 0.056500945 0.42504314 -0.0042190519 -0.99618196 0.087198772 0.0028729306
-0.06543231 0.056500949 0.42290616 -0.0085180253 -0.99458945 0.10353398 0.0031877956
-0.053415444 0.056500945 0.42335659 0.012557629 0.99128491 -0.13113572 0.0036114822
-0.046377193 0.056500945 0.4241192 -0.016618446 -0.99152505 0.12884815 0.0037333907
-0.036295082 0.056500945 0.42491028 0.027199255 0.99028474 -0.13636836 0.0037532256
-0.024527488 0.056500949 0.42488939 0.016545206 0.98811036 -0.15285321 0.003885478
-0.015528661 0.056500953 0.4263626 0.010047816 0.98863357 -0.15000895 0.0048903795
-0.0044837836 0.056439098 0.42435437 0.078833051 0.96110004 -0.26471138 0.024841122
0.0067558335 0.056500949 0.42800361 0.10800429 0.95465273 -0.27744052 0.045825049
0.012864354 0.056165427 0.42498857 0.16487172 0.88825756 -0.42873737 0.071602151
0.024582446 0.055372659 0.42524958 0.25473323 0.80212379 -0.54010028 0.074699841
0.034886871 0.055384919 0.42677724 0.13594127 0.83094168 -0.53949606 0.084092744
0.042935137 0.056119051 0.42667127 0.03780311 0.83657426 -0.54654771 0.078960851
0.056209557 0.054820824 0.42671126 -0.0081815841 0.84490621 -0.53485191 0.085572682
0.064492933 0.055411659 0.42659116 0.10982104 0.69061309 -0.71483779 0.070359111
0.075275131 0.054056525 0.42694959 0.087909997 0.65201813 -0.75308979 0.13397963
0.084576465 0.055219755 0.42781237 0.15084763 0.79226619 -0.59123534 0.16634406
0.094731182 0.054091595 0.42772657 -0.1049285 0.7126599 -0.69361794 0.15394405
0.10575765 0.053328924 0.42617258 -0.2029333 0.6978569 -0.68688709 0.10559697
0.11516131 0.054370724 0.42508712 -0.15304272 0.77816051 -0.6091339 0.076048538
0.12435578 0.054575928 0.42342195 -0.14438479 0.58940923 -0.79482692 0.092024274
0.13618138 0.055535104 0.42330179 -0.26961014 0.6018241 -0.75174332 0.09334603
0.14351557 0.0560003 0.42453179 -0.19858687 0.81837422 -0.53928369 0.1076233
0.15502319 0.0560003 0.4232381 -0.18429224 0.86316574 -0.47008643 0.075865276
0.16249108 0.0560003 0.42635381 -0.062660545 0.95608622 -0.28630897 0.077265657
0.17526551 0.056000303 0.42419115 -0.012195488 -0.99690586 0.077652752 0.09666793
0.18368879 0.0560003 0.42480323 -0.13870732 -0.97575867 -0.16927877 0.084806368
0.19460072 0.056000296 0.42484477 -0.40529343 -0.86433297 -0.29776806 0.094819024
0.20198786 0.052328911 0.42521465 -0.60020632 -0.56285065 -0.56828821 0.082456477
-0.17395303 -0.05580559 0.4349061 0.35066551 0.93646073 -0.0086627789 0.023915809
-0.16545334 -0.056500945 0.43496704 0.2736012 0.96159548 -0.021829383 0.024769081
-0.15602724 -0.056500945 0.43613827 0.11706762 0.99312383 0.00046800476 0.013696605
-0.14374298 -0.056500945 0.43451741 0.00052924122 0.99998903 0.0046496582 7.4115625e-05
-0.13413383 -0.056500945 0.43402171 -0.0011668309 0.999919 0.012677791 0.00025635061
-0.12485348 -0.056500953 0.43458381 -0.0010307089 0.99998254 0.0058316574 0.00011527295
