# .PCD v0.7 - Point Cloud Data file format
VERSION 0.7
FIELDS x y z normal_x normal_y normal_z curvature
SIZE 4 4 4 4 4 4 4
TYPE F F F F F F F
COUNT 1 1 1 1 1 1 1
WIDTH 572
HEIGHT 1
VIEWPOINT 0 0 0 1 0 0 0
POINTS 572
DATA ascii
0.036173847 -0.10445549 -0.022060087 0.10651933 0.0094334083 0.99426585 0.021086959
0.043872334 -0.10511708 -0.022060085 0.00081182056 2.1557418e-05 0.99999964 1.9003292e-06
0.054594416 -0.10486012 -0.022060085 -0.00045158094 4.5424067e-06 0.99999994 5.8221917e-07
0.065143526 -0.10320597 -0.022060087 -0.17410509 0.0096321385 0.98468 0.039403796
0.076038174 -0.10424029 -0.022060089 -0.49230373 0.06671714 0.86786282 0.088740498
0.083094202 -0.10374454 -0.021951674 -0.65377259 0.067752354 0.75365186 0.10276993
0.015101378 -0.094940886 -0.021795515 0.68046188 0.082886808 0.72808063 0.091631882
0.024791468 -0.096164078 -0.022060089 0.42700577 0.0049469834 0.90423542 0.071260028
0.035244759 -0.095714107 -0.022060085 0.15592575 0.013143959 0.98768133 0.031887718
0.042919036 -0.094255455 -0.022060091 0.0020783122 -3.4154054e-05 0.99999785 5.5059891e-06
0.05520492 -0.093844675 -0.022060087 -0.023762029 -0.00092285499 0.99971724 0.002017152
0.06567236 -0.094808228 -0.022060089 -0.19482875 0.006228664 0.98081744 0.043678384
0.07461293 -0.095525347 -0.022060091 -0.4432151 -0.020935917 0.89617074 0.080173902
0.083471343 -0.094108008 -0.021501791 -0.70728749 0.026218133 0.70643955 0.096905082
0.015153298 -0.085652508 -0.021940092 0.62644404 -0.010338845 0.7793979 0.089534305
0.025176242 -0.085988097 -0.022060089 0.36060953 -0.050931964 0.93132532 0.071286932
0.034557529 -0.085225716 -0.022060089 0.16243328 -0.015294787 0.98660094 0.030611405
0.044471554 -0.085613877 -0.022060089 0.00067594729 0.011663921 0.99993175 0.00046275673
0.053698543 -0.083774082 -0.022060087 -0.0066590323 0.023404056 0.99970388 0.00076743693
0.065208726 -0.085121863 -0.022060087 -0.19176914 0.025497111 0.98110878 0.040359642
0.07461825 -0.085383318 -0.022060089 -0.56175339 -0.028629772 0.82680923 0.10276886
0.082666405 -0.084778607 -0.021486839 -0.61984491 0.013823369 0.78460252 0.10559109
0.015774246 -0.074488409 -0.021873044 0.69542837 0.029093457 0.71800613 0.09394262
0.023639914 -0.075352401 -0.022060091 0.5107919 0.041816294 0.8586868 0.082501583
0.034296013 -0.075190105 -0.022060091 0.20310342 0.065540887 0.97696131 0.038935971
0.045380358 -0.075484358 -0.022060089 0.02227227 0.14364877 0.98937804 0.01665193
0.05451085 -0.075021006 -0.022060083 -0.020450251 0.12266675 0.99223715 0.015468391
0.064732082 -0.075025111 -0.022060089 -0.24706823 0.072583422 0.96627575 0.046293333
0.075343512 -0.073870741 -0.022060087 -0.53997004 0.049436174 0.84023106 0.080844276
0.083202824 -0.075928666 -0.021621266 -0.75500906 -0.051631298 0.65367842 0.082238913
0.015164734 -0.065585837 -0.021758351 -0.80237293 0.033121902 -0.59590328 0.061207864
0.024335787 -0.066235676 -0.022060087 0.47348556 0.088394485 0.87635481 0.054724246
0.035231519 -0.063867413 -0.022060091 0.24473213 0.17295422 0.95404035 0.05358709
0.045919742 -0.06629248 -0.022060089 0.0015035132 0.24435306 0.96968514 0.022229778
0.05488269 -0.065391093 -0.022060089 -0.11094211 0.22382474 0.96829462 0.024774667
0.064148605 -0.064760722 -0.022060091 -0.26552171 0.15109594 0.95219129 0.057458505
0.07431455 -0.065400541 -0.022060087 -0.51369792 0.086778104 0.85357136 0.081400961
0.083599709 -0.065226622 -0.02169122 -0.74622083 -0.065792628 0.66243935 0.08645986
0.016879717 -0.05615503 -0.021397522 -0.77421039 0.05077884 -0.63088816 0.065946706
0.025015419 -0.054283164 -0.024862483 0.49260285 0.13592102 0.8595742 0.049145188
0.03581791 -0.056288015 -0.023841128 0.25309348 0.23429972 0.93864125 0.042842671
0.044488594 -0.055794198 -0.024686795 0.10348561 0.26801866 0.95783961 0.022134045
0.055786852 -0.055755991 -0.024590578 -0.2171161 0.26164067 0.9404279 0.032462887
0.066035911 -0.055782508 -0.024521224 -0.42691311 0.15332973 0.89119869 0.054814801
0.074933723 -0.05466513 -0.022439199 -0.64626676 0.068969071 0.75998855 0.0664462
0.082815968 -0.056143645 -0.020894442 -0.76449722 -0.054871954 0.64228737 0.074932165
0.019299788 -0.044766266 -0.020786511 -0.76781201 -0.0081833201 -0.64062291 0.05645198
0.02393722 -0.044965409 -0.025659818 0.59798992 0.054963782 0.79961681 0.038668077
0.069380529 -0.044608846 -0.028432915 -0.52371442 0.10308598 0.84563375 0.044216987
0.07380721 -0.044840775 -0.024339849 -0.64780235 0.033415601 0.76107526 0.038056187
0.019215319 -0.036778681 -0.020689651 -0.81611615 0.025210368 -0.57733768 0.034985736
0.023257187 -0.035727195 -0.025121782 0.66628087 0.061532941 0.74315774 0.031846311
0.068499424 -0.03404269 -0.029201297 -0.58384275 0.03142269 0.81125844 0.026470933
0.074750923 -0.034875188 -0.023228271 -0.70908839 0.037809785 0.70410514 0.023555346
0.024483752 -0.025087226 -0.026290629 0.67399663 0.019263858 0.73848325 0.017732009
0.068335786 -0.02447713 -0.029328177 -0.62769628 0.010953812 0.77838129 0.025914751
0.073736742 -0.023778681 -0.024373319 -0.72351301 0.00022731637 0.69031072 0.013463366
0.018784424 -0.015510422 -0.020195561 -0.84787643 0.02233631 -0.52972323 0.018932916
0.024830213 -0.015108559 -0.026478328 0.67586076 0.0090248026 0.73697406 0.018148508
0.068943128 -0.016232591 -0.02881436 -0.61301196 -0.016107609 0.78990942 0.023094071
0.074228525 -0.013881257 -0.024017209 -0.72996736 0.010160359 0.68340647 0.014941794
0.022399619 -0.0041358471 -0.024138138 0.69377828 0.028401304 0.71962845 0.019636247
0.068722136 -0.0064844564 -0.029007077 -0.59326613 -0.027075777 0.80455089 0.019707702
0.073585697 -0.0047719898 -0.024383105 -0.72880131 0.0079719806 0.68467879 0.016192231
0.019243991 0.0036204273 -0.020722531 -0.84691012 -0.0026420306 -0.53172958 0.018544056
0.023873722 0.0045013861 -0.025593469 0.66192085 -0.0091426494 0.74951798 0.019781295
0.069168389 0.0036779116 -0.028617915 -0.63603562 -0.028597672 0.77112967 0.02320472
0.074725159 0.004560235 -0.023312151 -0.72380185 -0.035684459 0.68908453 0.014562183
0.019185508 0.01509933 -0.020655468 -0.82754695 -0.016286502 -0.56116021 0.026306225
0.024515131 0.01463568 -0.026225002 0.66215044 0.033984751 0.74859983 0.018744849
0.068351924 0.01553615 -0.029294202 -0.61181808 0.00011778098 0.79099852 0.022023957
0.073559321 0.015297391 -0.024606487 -0.69878823 -0.00048143149 0.7153284 0.019767853
0.019306483 0.023648452 -0.020794185 -0.82811481 0.025137914 -0.55999464 0.023451189
0.023497833 0.025264934 -0.025359696 0.68024474 0.005958904 0.73296082 0.017266724
0.068676159 0.025299 -0.029035291 -0.62365675 0.022077275 0.78138644 0.02450352
0.074855089 0.024989732 -0.023185134 -0.74500024 -0.012639671 0.66694444 0.014258644
0.019419536 0.033530239 -0.020923819 -0.80554527 0.023253256 -0.59207779 0.025966266
0.023707418 0.035032958 -0.025494272 0.72019684 -0.0093541397 0.69370675 0.018036492
0.06937243 0.035269573 -0.028439978 -0.61410195 0.016476374 0.78905469 0.026617229
0.073138192 0.034648556 -0.024978686 -0.70951366 0.0092774322 0.70463055 0.014763842
0.019454157 0.04362236 -0.020963518 -0.80825907 0.0054012509 -0.58880228 0.028304044
0.025700111 0.044542715 -0.027262216 0.6695829 -0.0087760407 0.74268544 0.018155245
0.068614662 0.046673819 -0.029072378 -0.5955838 0.0293271 0.80275768 0.023225348
0.074192412 0.04363573 -0.023975499 -0.73576784 -0.0058302148 0.67720872 0.014048591
0.019290982 0.054247994 -0.020776415 -0.80762196 -0.004770603 -0.58968133 0.028530708
0.023942146 0.055122942 -0.025731171 0.67590445 0.0095016882 0.73692799 0.018378699
0.068427078 0.055054259 -0.029218694 -0.60417044 -0.022422945 0.7965396 0.028119888
0.074533336 0.056284949 -0.023560666 -0.75969386 0.010141894 0.6502018 0.019667858
0.019236226 0.065884374 -0.020713627 -0.82923228 -0.0018110559 -0.55890119 0.0278647
0.024543654 0.065054096 -0.026293734 0.6570878 -0.006005154 0.75379014 0.019987511
0.06890209 0.064988717 -0.028850144 -0.60555667 -0.028741023 0.79528308 0.022733465
0.074322112 0.064995117 -0.023788298 -0.73058021 0.01191523 0.68272287 0.015272491
0.019012451 0.07345292 -0.020457035 -0.84963214 0.025550768 -0.52675635 0.019237334
0.025325434 0.07438501 -0.027013905 0.66647804 -0.0091389595 0.74546868 0.019027555
0.06880147 0.075731397 -0.028912053 -0.60521835 -0.022400556 0.79574424 0.023415131
0.073554799 0.074959069 -0.024557488 -0.6870811 0.0064724437 0.72655189 0.020963291
0.019456979 0.084108613 -0.020966753 -0.82687485 0.024524631 -0.56185114 0.026542105
0.024115032 0.08424516 -0.025934907 0.67604351 0.0016893157 0.73685968 0.020539602
0.068527661 0.08318004 -0.029168691 -0.60351348 -0.013891301 0.79723173 0.021391297
0.074070886 0.084917612 -0.024086835 -0.72458822 0.00057707407 0.6891818 0.015086303
0.019515272 0.097139731 -0.021033596 -0.82451141 -0.025751447 -0.5652591 0.02354648
0.024752727 0.096615471 -0.026419932 0.67927051 0.02122426 0.73358101 0.019842954
0.068650529 0.095099203 -0.029069524 -0.61256909 0.025341008 0.79001075 0.025295891
0.073388241 0.094395272 -0.024578696 -0.72767746 -0.0010635039 0.68591857 0.015901843
0.019226739 0.10677476 -0.020702748 -0.82605791 -0.019051675 -0.56326318 0.023858558
0.023536837 0.10452805 -0.025300868 0.69541281 0.0067346729 0.71857893 0.022097336
0.068494543 0.10630397 -0.029184764 -0.60628927 0.019787598 0.79499793 0.023434557
0.075141154 0.10525774 -0.022962 -0.77297616 -0.008913273 0.63437241 0.020787988
0.019556105 0.11640462 -0.021080418 -0.82636821 -0.03116356 -0.56226724 0.02347203
0.024750203 0.11527961 -0.026444647 0.6822542 0.019957032 0.73084265 0.021108393
0.068702057 0.11390158 -0.029024586 -0.57938862 -0.0073788431 0.81501806 0.021281905
0.072928056 0.11440253 -0.025260221 -0.70417976 -0.0066049397 0.70999092 0.015350167
0.019349573 0.12345981 -0.020843595 -0.80286771 0.020511646 -0.59580433 0.026908394
0.024491649 0.12449854 -0.026184995 0.68911409 -0.022843098 0.72429264 0.019497918
0.068181247 0.12307514 -0.02943271 -0.59504479 -0.0027816666 0.80368775 0.023678577
0.073996365 0.12517507 -0.024091568 -0.72703373 -0.024374111 0.68616891 0.015420439
0.0194187 0.13516292 -0.02092286 -0.84531909 -0.0044343895 -0.53424346 0.020085765
0.024952117 0.13496342 -0.026743513 0.66275221 0.0022691039 0.74883521 0.019212613
0.068370357 0.13497938 -0.029258395 -0.61259317 -0.018266577 0.79018724 0.022185476
0.073098928 0.1353976 -0.02501593 -0.6887452 -0.022280013 0.72466111 0.019364117
0.019321134 0.14627393 -0.020810988 -0.82584786 -0.013874765 -0.56372225 0.022913765
0.023885941 0.14472181 -0.02566213 0.66804403 0.0063484521 0.74409473 0.018218113
0.069147304 0.14455745 -0.028633246 -0.62548387 -0.010359419 0.78016835 0.02544936
0.073566943 0.14590102 -0.024381002 -0.72903454 -0.013335063 0.68434715 0.015042048
0.019647483 0.15932016 -0.021185199 -0.79035711 -0.001874206 -0.61264348 0.029220236
0.02377628 0.15551277 -0.025512254 -0.68694186 -0.018237112 -0.72648364 0.019139295
0.068489872 0.15514714 -0.029192615 -0.60266167 0.001448176 0.79799551 0.025081163
0.074384198 0.15631117 -0.023710499 -0.73218131 0.0060875313 0.68108255 0.015385977
0.019322703 0.16257095 -0.020812785 -0.81099135 0.014869785 -0.58486921 0.029802887
0.024282692 0.16554782 -0.025975395 -0.68869007 -0.017836077 -0.72483653 0.019707445
0.068367012 0.16489162 -0.0292871 -0.62264425 -0.018390356 0.78228891 0.027937857
0.072884277 0.16605428 -0.025267268 -0.71498066 -0.0097732972 0.69907582 0.016194718
0.018910142 0.17229821 -0.02033972 -0.85415149 0.015227872 -0.5198012 0.019282943
0.024486208 0.17512581 -0.026097005 0.67225575 0.013575819 0.74019456 0.017794535
0.068656065 0.1755714 -0.029060205 -0.59470147 -0.016529636 0.80377668 0.022593545
0.074276865 0.17463312 -0.023814952 -0.73070657 0.0029453228 0.68268543 0.014938966
0.019611828 0.18586178 -0.02114431 0.80611873 -0.022955384 0.59130847 0.025337746
0.026159119 0.18541548 -0.027583532 0.65970927 -0.0033473975 0.75151348 0.019925047
0.068561666 0.18608604 -0.029147027 -0.62804544 0.021142988 0.77788949 0.021451836
0.074361131 0.18577605 -0.0237172 -0.72322768 -0.012357606 0.69049907 0.01425007
0.019282259 0.19408247 -0.020766411 -0.8448897 0.0095326426 -0.53485578 0.019034194
0.023533285 0.19500822 -0.025364969 0.6949777 -0.013339585 0.71890754 0.017442845
0.069075897 0.19738704 -0.028698571 -0.6268689 0.030429212 0.7785303 0.023144232
0.073556602 0.19616576 -0.024443757 -0.70599794 0.015194112 0.70805085 0.019311458
0.018886812 0.2025909 -0.020312967 -0.82337284 0.0046141492 -0.56748205 0.0230205
0.0245729 0.20496137 -0.026293321 0.66551119 0.00091512833 0.7463873 0.018788526
0.068856515 0.20758283 -0.028889274 -0.61720628 0.015676532 0.78664523 0.023935245
0.073408835 0.20500968 -0.024608541 -0.71794558 0.023832785 0.69569111 0.015407793
0.019485764 0.2162443 -0.020999763 -0.81517172 -0.021396577 -0.57882398 0.023293195
0.024250999 0.2151687 -0.026063338 0.67907274 -0.012161432 0.73397011 0.017737992
0.068847045 0.21400453 -0.028860105 -0.6165176 -0.015520067 0.78718811 0.023631001
0.074441202 0.21496598 -0.023657219 -0.77361792 -0.0185977 0.6333794 0.019706387
0.019275593 0.2254988 -0.020758769 -0.81360435 -0.023375105 -0.58094889 0.022049725
0.024496095 0.22541609 -0.02610781 0.66607076 -0.0088362722 0.74583614 0.019068751
0.067934968 0.22410019 -0.029649965 -0.56564474 -0.022637533 0.82433826 0.01572768
0.074141085 0.22495842 -0.024008131 -0.73638266 -0.0053623007 0.67654413 0.015703665
0.019903557 0.23587731 -0.021478828 -0.80246603 -0.0022140546 -0.59669375 0.02673931
0.024629481 0.23550488 -0.026373221 0.65766621 0.015308242 0.75315398 0.019596962
0.068075158 0.23599426 -0.029522257 -0.58840489 0.0011507252 0.80856568 0.020596163
0.074278936 0.23421261 -0.023691136 -0.74340481 -0.011334615 0.66874564 0.014861193
0.019721102 0.24480975 -0.021269616 0.82668072 -0.019074753 0.56234795 0.021743052
0.025037672 0.24538657 -0.026715565 0.66844749 -0.012588096 0.74365276 0.021998763
0.068909228 0.2440097 -0.028843924 -0.61040765 -0.0074213152 0.79205275 0.025013426
0.073388107 0.24382243 -0.02490774 -0.71383274 -0.0077789882 0.70027298 0.014575003
0.019306354 0.2554484 -0.020794038 -0.80695099 0.0091246171 -0.59054798 0.029496223
0.024052886 0.2546694 -0.025843216 0.67989951 -0.0096142385 0.73324233 0.021587403
0.068619877 0.25457364 -0.029044602 -0.570997 -0.0022005241 0.8209492 0.02215259
0.07351917 0.25482899 -0.024520706 -0.72340971 0.0018529019 0.69041651 0.015480438
0.019357981 0.26433811 -0.020853236 -0.85206765 0.017850339 -0.52312732 0.019364174
0.024566716 0.26496437 -0.026271984 0.66843641 -0.013216075 0.74365187 0.019107921
0.068652384 0.26348269 -0.029066974 -0.61508596 -0.014273521 0.78833085 0.023767382
0.073803671 0.26516739 -0.024422625 -0.703511 0.0093160132 0.71062326 0.016023314
0.01949333 0.2790581 -0.021008437 -0.7870782 -0.0086392406 -0.61679274 0.025106799
0.025124932 0.27627572 -0.026731873 -0.68218172 -0.010159163 -0.73111212 0.01779934
0.068716772 0.27535436 -0.029006632 -0.58795488 0.020683814 0.80862927 0.021453558
0.073784113 0.27568609 -0.024316445 -0.76605672 -0.0024750291 0.6427682 0.020934308
0.018653896 0.28677687 -0.020045891 -0.82320106 -0.029887423 -0.56696266 0.024005285
0.024104398 0.28506759 -0.026012808 0.7079519 -0.00084426947 0.70626014 0.02020512
0.069035552 0.28563023 -0.02872665 -0.6261546 0.02904018 0.779158 0.02659018
0.073908798 0.28442064 -0.024115102 -0.72900927 -0.01316033 0.68437725 0.016113928
0.019190416 0.2987608 -0.020661097 -0.82455736 -0.026327724 -0.56516546 0.024206638
0.024304546 0.29489142 -0.02588371 -0.69038409 -0.0090327924 -0.72338665 0.019187512
0.068472296 0.29606229 -0.02919301 -0.60380006 0.014033718 0.79701227 0.025062526
0.073585659 0.29471141 -0.02457154 -0.74047476 0.011612482 0.67198378 0.015606503
0.019300517 0.30531874 -0.020787345 -0.82675242 -0.025651861 -0.56198084 0.025709119
0.024916833 0.30524552 -0.026550768 0.65447402 0.0052904305 0.75606596 0.018101271
0.068663917 0.30507275 -0.029057851 -0.63030905 0.0045209364 0.77633107 0.025237462
0.0730514 0.30501077 -0.025068758 -0.68425536 -0.016470827 0.72905642 0.018952269
0.019223949 0.31476057 -0.020699548 -0.82106316 0.0060761687 -0.57080495 0.02542608
0.025014585 0.31537172 -0.026585516 -0.65906793 -0.0116898 -0.75199258 0.020680716
0.069332175 0.31458867 -0.02847508 -0.62491375 -0.023139669 0.78035086 0.024697721
0.073234431 0.31506905 -0.024968997 -0.72301191 0.0036046712 0.69082624 0.015359133
0.019279912 0.32435206 -0.020763718 0.82414526 -0.021433212 0.56597286 0.025579542
0.024675678 0.3259213 -0.026189508 0.67150724 -0.020462565 0.74071544 0.018914241
0.068984605 0.32441306 -0.02877819 -0.61703771 -0.0050671948 0.78691727 0.02692819
0.073073216 0.32497361 -0.025069024 -0.7111817 -0.016082222 0.70282423 0.014950365
0.019160215 0.33361962 -0.020626467 0.82405746 -0.03787832 0.56523848 0.024099085
0.023085451 0.33402869 -0.024886195 0.7072044 -0.019245813 0.70674711 0.018849535
0.069076963 0.33395255 -0.028655129 -0.6183027 -0.022414412 0.78562045 0.024166673
0.073256634 0.33549553 -0.024877269 -0.70852941 -0.0017346989 0.70567924 0.014948417
0.019503286 0.34397182 -0.021019854 0.82663935 -0.023407783 0.56224495 0.023745887
0.023693288 0.34536424 -0.025672041 0.68027371 -0.0047692172 0.73294258 0.020175304
0.068342939 0.34626368 -0.029312523 -0.62161237 0.023852659 0.78296167 0.02356958
0.074120417 0.34422457 -0.023975 -0.75320768 -0.005447757 0.65776026 0.018725883
0.024832875 0.3547335 -0.026615795 -0.672665 -0.011128278 -0.73986351 0.018855812
0.068783872 0.35634074 -0.028943598 -0.60459274 0.019609272 0.79629338 0.022235714
0.074268632 0.35498309 -0.023593536 -0.72409928 0.0076394188 0.68965352 0.014697234
0.019440793 0.36508945 -0.020948198 -0.81049979 -0.03474595 -0.5847075 0.022106906
0.024649857 0.36591509 -0.026397083 -0.68397826 -0.010545217 -0.72942621 0.022351595
0.068822555 0.36656654 -0.028919507 -0.60383379 0.020313485 0.7968514 0.02566907
0.074503757 0.36399445 -0.023558354 -0.73280418 0.0028639825 0.68043351 0.015135265
0.019256871 0.37596509 -0.0207373 -0.83346516 -0.030680165 -0.55171973 0.025241539
0.024084274 0.37426162 -0.02577633 0.67818373 0.0029415635 0.73488653 0.021647358
0.069223955 0.37623206 -0.028569469 -0.62113237 0.018337987 0.78349108 0.02378634
0.074138448 0.37448883 -0.023918282 -0.73354578 0.0029603145 0.67963374 0.015152371
0.019182334 0.3830241 -0.02065183 -0.83644968 -0.0022151221 -0.54803926 0.024364807
0.025769344 0.38497716 -0.027412351 0.66299629 -0.0035521886 0.74861425 0.019973697
0.068976954 0.38621771 -0.028742261 -0.60804534 0.0088628484 0.79385287 0.021578377
0.072648451 0.38443881 -0.025456933 -0.69638664 -0.0095864851 0.71760273 0.019166423
0.019487448 0.395042 -0.0210017 0.82223189 -0.018064789 0.56886595 0.028331812
0.024512775 0.39572698 -0.0263333 0.66695112 -0.018445231 0.74487317 0.019565221
0.069003597 0.39444575 -0.028761627 -0.62741208 -0.013327686 0.77857339 0.025257723
0.07372494 0.39522702 -0.024456631 -0.73707157 0.012764206 0.67569411 0.015093786
0.019162126 0.40427092 -0.020628665 0.82091486 -0.019088509 0.57073146 0.027705347
0.024122052 0.40430751 -0.025874792 0.69567901 0.0037020803 0.7183432 0.017205933
0.068309344 0.40552488 -0.029311221 -0.61099923 -0.0036208429 0.79162294 0.022975355
0.073765293 0.40466815 -0.024271397 -0.72342497 -0.00079280592 0.69040263 0.015022522
0.01927173 0.4152573 -0.02075435 -0.82566249 -0.0048179254 -0.56414378 0.028232239
0.025771234 0.41342196 -0.027251348 0.65317738 -0.0049633808 0.75718868 0.018090693
0.06845399 0.41355315 -0.029211104 -0.60531628 -0.0079147462 0.7959457 0.025093347
0.074238971 0.41484904 -0.023908941 -0.76192063 -0.0035500852 0.64766079 0.018221814
0.018910605 0.42715636 -0.020340251 -0.85001081 -0.015071976 -0.52654958 0.018363167
0.024233501 0.42454454 -0.025937179 -0.68385959 -0.019370504 -0.72935641 0.019933209
0.068923198 0.42527059 -0.028831737 -0.6270625 0.018460624 0.77875018 0.02652948
0.07426177 0.42487964 -0.023861686 -0.72725409 -0.0030104199 0.68636173 0.015611071
0.019432757 0.43501586 -0.020939002 -0.80111641 -0.0049829995 -0.59848785 0.02316281
0.024527097 0.43490425 -0.026273286 0.66280198 -0.0021793123 0.74879158 0.018936625
0.068476602 0.43466049 -0.029221196 -0.63208377 -0.0046733604 0.77488589 0.026286403
0.074210465 0.4344922 -0.023951361 -0.72862244 -0.010399926 0.68483657 0.015745379
0.019124098 0.44668898 -0.020585068 -0.82002801 -0.025137177 -0.57177109 0.022260658
0.024424635 0.44446221 -0.026222818 -0.67295158 -0.026577169 -0.73920894 0.018302988
0.06897863 0.44481477 -0.028772313 -0.60804427 0.0043664104 0.79389107 0.026264895
0.074054234 0.44432503 -0.02403366 -0.75664675 -0.0021372696 0.65382051 0.020328691
0.019398354 0.45586661 -0.020899564 -0.80376363 0.0049539171 -0.59492809 0.020368516
0.023449464 0.45577475 -0.02518788 0.67988354 0.002202173 0.73331684 0.017259298
0.068230681 0.45462045 -0.029365029 -0.58909506 -0.020850636 0.80779475 0.020678401
0.073646352 0.45486149 -0.024447735 -0.71833986 -0.013351715 0.69556427 0.01376213
0.019244019 0.4657082 -0.02072259 -0.84534448 -0.011904066 -0.53408891 0.019917823
0.02497671 0.46523136 -0.026704358 -0.65560311 -0.0093208672 -0.7550481 0.020524282
0.068323605 0.46374807 -0.029326579 -0.59136224 0.0064661358 0.80638009 0.024710847
0.073943019 0.46450266 -0.024221653 -0.73855764 0.013356245 0.67405802 0.015123728
0.019522818 0.47541192 -0.021042304 0.79996973 -0.1004329 0.59157556 0.034945242
0.024611803 0.47527313 -0.026383866 0.66450053 -0.074520968 0.74356288 0.024649112
0.069193214 0.47072372 -0.028596271 -0.6199283 -0.017757658 0.7844575 0.020198105
0.07434354 0.47551936 -0.02376557 -0.72999072 -0.033059802 0.68265706 0.016716631
0.019585129 0.48683715 -0.021113768 0.77516955 -0.2967298 0.55773079 0.064952262
0.024908708 0.48446062 -0.026523683 0.66781616 -0.25182563 0.70043236 0.054122489
0.068060838 0.48600784 -0.029521611 -0.57212871 -0.2313761 0.78685057 0.056649599
0.074303821 0.48401895 -0.023823272 -0.72728014 -0.18184848 0.66181171 0.045834117
0.019461414 0.49479291 -0.020971907 0.72408855 -0.41240132 0.55283004 0.065760255
0.025086094 0.49627054 -0.026721017 0.54351467 -0.53845644 0.6439383 0.094580427
0.06884338 0.49547344 -0.028874952 -0.50916404 -0.50977075 0.69345933 0.087125838
0.073976144 0.49530312 -0.024092386 -0.62373143 -0.47291335 0.62234408 0.088797748
0.028160395 0.5 -0.024497403 0.43852931 -0.70426977 0.55829751 0.085276648
0.034081802 0.5 -0.024297038 0.33968616 -0.7644096 0.54798841 0.089479551
0.044477936 0.5 -0.024436321 0.073965572 -0.85764408 0.50889647 0.076506302
0.054565255 0.5 -0.024705697 -0.13773713 -0.81283039 0.56598169 0.073165126
0.06621971 0.5 -0.025380097 -0.40099958 -0.63780606 0.65757334 0.10191778
0.072496288 0.5 -0.022788716 -0.5162189 -0.70520276 0.48601148 0.089388154
-0.031731125 -0.49028358 -0.014192283 0.21590191 0.85007709 0.48037007 0.08394739
-0.024574429 -0.49162364 -0.014866656 0.17338525 0.82769191 0.53372633 0.08811973
-0.014406544 -0.49341449 -0.015663633 0.17499301 0.82892752 0.53127819 0.078305915
-0.0060049691 -0.49459344 -0.014160465 0.1102404 0.90151995 0.41846016 0.065555833
0.0044081383 -0.49597821 -0.013609852 0.078392915 0.92995512 0.35921863 0.069164574
0.015061564 -0.49723765 -0.015580519 0.06520544 0.84973395 0.52316397 0.073586561
0.023619669 -0.49793297 -0.01527882 0.024303155 0.84253961 0.5380857 0.06788139
0.034424983 -0.49879193 -0.01466075 0.06012971 0.8331396 0.54978436 0.077085331
0.045051191 -0.49938521 -0.015651306 0.012630958 0.82060319 0.57135868 0.081843063
0.054644596 -0.49963894 -0.014474968 0.041253578 0.79658383 0.60311884 0.088011444
0.064035609 -0.49988729 -0.015863795 -0.056847725 0.81796658 0.57245004 0.077794135
0.076222502 -0.49979037 -0.014134538 0.033172507 0.81985968 0.57160276 0.079914987
0.085864648 -0.49953532 -0.015795248 0.039979905 0.81846142 0.57316875 0.077544831
0.094804719 -0.49926329 -0.015743649 -0.06357538 0.82995862 0.55419028 0.080675378
0.10489555 -0.49857524 -0.015964871 -0.05237804 0.83126402 0.55340463 0.074149109
0.11515764 -0.49775946 -0.014405422 -0.077242389 0.84986389 0.52131087 0.071755148
0.1259588 -0.49679124 -0.013516348 -0.11272079 0.90916997 0.40087894 0.075365357
0.13468535 -0.49564585 -0.015170501 -0.068140335 0.89091384 0.44903162 0.081336819
0.14432339 -0.49436417 -0.014646776 -0.13507406 0.89843297 0.41781944 0.074013375
0.15534024 -0.49270165 -0.014619396 -0.1723872 0.8327989 0.52605003 0.083678581
0.16486385 -0.49093172 -0.014152605 -0.18723692 0.82280165 0.53660017 0.10012949
-0.072818115 -0.48077771 -0.014964116 0.25820005 0.84919882 0.46064532 0.088732317
-0.065850601 -0.48262331 -0.014473363 0.22536117 0.87226844 0.43400475 0.089934327
-0.053840429 -0.48553681 -0.015465522 0.17324318 0.85288239 0.49252239 0.07298857
-0.044574782 -0.48776358 -0.014824629 0.13553338 0.86272317 0.48717487 0.068908058
-0.036608499 -0.48937032 -0.016303914 0.18141893 0.81918418 0.54408127 0.093852907
0.17447533 -0.48913208 -0.014931696 -0.18273035 0.81718081 0.54664904 0.088972047
0.18537013 -0.48676533 -0.01465051 -0.16932525 0.85207427 0.49527615 0.070061065
0.1951821 -0.48438516 -0.014413785 -0.17279738 0.82997614 0.53035891 0.089394562
0.20490485 -0.4820053 -0.015446424 -0.18988459 0.84932357 0.49253753 0.099675365
0.21132123 -0.48020625 -0.014650936 -0.27617171 0.85851622 0.43206385 0.079854861
-0.10163526 -0.47063488 -0.013802573 0.45038572 0.77083105 0.45052451 0.069846421
-0.094530575 -0.47416258 -0.014010283 0.40468019 0.82580167 0.39279208 0.05963514
-0.085451737 -0.47699568 -0.015224435 0.30899778 0.84202278 0.4421742 0.074193932
-0.076951131 -0.47954041 -0.016460709 0.22760013 0.81712556 0.52962625 0.089199014
0.21607377 -0.47878349 -0.014523368 -0.34331542 0.83838695 0.42336968 0.094386153
0.22559905 -0.475932 -0.014234159 -0.5979532 0.73262936 0.32512501 0.10671152
0.23273067 -0.47338313 -0.015796963 -0.71218336 0.56666297 0.41435239 0.099854834
-0.11334958 -0.46273413 -0.016344454 0.48261547 0.54471689 0.6858322 0.071959995
-0.10746056 -0.46597871 -0.016564269 0.50967646 0.68845683 0.51600116 0.075229324
0.23349525 -0.46528947 -0.015941752 -0.73636705 0.35339355 0.57695454 0.11201965
-0.13311936 -0.45089346 -0.012511916 0.51099986 0.71021718 0.48422167 0.088885657
-0.12441403 -0.45546097 -0.014540675 0.49633229 0.60481995 0.62277365 0.080760092
-0.11595628 -0.45482123 -0.017913863 0.49298325 0.42223954 0.76071101 0.070010766
-0.10744416 -0.45351937 -0.019768946 0.38402697 0.29507583 0.87490201 0.067418166
0.23349524 -0.45552659 -0.015530123 -0.89652121 0.062870041 0.43851689 0.08110413
-0.1474475 -0.44179666 -0.01144531 0.57235175 0.62978464 0.52515209 0.11644959
-0.13597485 -0.44562572 -0.013722605 0.518489 0.55878168 0.6472497 0.09763813
-0.12426145 -0.44525287 -0.0163862 0.38475478 0.33823559 0.85881341 0.065980718
-0.11470111 -0.44323888 -0.018232275 0.37704808 0.24375682 0.89354205 0.056902245
-0.10884017 -0.44677258 -0.01941867 0.31076157 0.20813127 0.92742044 0.050790954
0.23349524 -0.44615948 -0.015087708 -0.88592839 -0.055352159 0.46050727 0.086661443
-0.15299362 -0.43213505 -0.010618329 0.56018728 0.47357038 0.67964792 0.11171022
-0.14464147 -0.43617555 -0.012297592 0.55227894 0.52302247 0.64918065 0.12381915
-0.13338387 -0.43556419 -0.014491586 0.39033663 0.33143198 0.8589471 0.082388915
-0.12566002 -0.43601757 -0.016006894 0.300464 0.17841253 0.93695807 0.037143186
-0.11467878 -0.43279153 -0.018116884 0.24629018 0.045647006 0.96812057 0.014073327
-0.10757522 -0.43404675 -0.019520104 0.17472918 -0.0022388024 0.98461407 0.0013751764
0.23349524 -0.43610293 -0.015581422 -0.88271052 -0.04277911 0.46796581 0.071680106
-0.15272827 -0.42494413 -0.010587777 0.431207 0.18952614 0.88212264 0.14739358
-0.14567746 -0.42459744 -0.011962323 0.38377318 0.10186978 0.91779119 0.15016483
-0.13502494 -0.42555436 -0.014055995 0.32107764 0.0073061669 0.94702476 0.1154574
-0.1240381 -0.42538634 -0.016202133 -0.25266901 0.15793505 -0.95457578 0.060275808
-0.1164501 -0.4250977 -0.017682372 -0.15560958 0.22200274 -0.96254891 0.06281127
-0.10688018 -0.42515063 -0.019554021 -0.11866752 0.23328599 -0.96514028 0.065949753
0.23349524 -0.42475194 -0.015104432 -0.84539199 0.0322912 0.53316951 0.087503091
-0.1521637 -0.41541111 -0.010588877 0.38521764 -0.040349249 0.92194319 0.17488487
-0.14589925 -0.41391194 -0.011796474 -0.15022145 0.26014322 -0.9538129 0.21981299
-0.13486433 -0.41652343 -0.013983874 -0.12234201 0.33064002 -0.93579358 0.15919569
-0.12499513 -0.41541117 -0.015900677 -0.067757234 0.40574345 -0.91147196 0.10301786
-0.11636236 -0.41599607 -0.017595196 -0.07517501 0.4659918 -0.88158965 0.11678351
-0.10671208 -0.41429138 -0.019462403 -0.093605861 0.6676904 -0.73853064 0.12929855
-0.061456598 -0.41022855 -0.010583866 0.013917859 0.99186516 -0.12653029 0.11710672
-0.054337773 -0.41048631 -0.012020267 0.024895975 0.98431987 -0.1746268 0.1401272
-0.045285221 -0.41086447 -0.013646692 0.022013616 0.97536075 -0.21951501 0.14209245
-0.035364293 -0.41119176 -0.0152112 0.031740125 0.95624447 -0.29084209 0.13939588
-0.026313163 -0.41086107 -0.013593591 -0.15216354 0.92176688 -0.35663992 0.14531864
0.23349524 -0.4153724 -0.014581785 -0.88677841 -0.14143988 0.44002149 0.096191503
-0.15144761 -0.40544119 -0.010614594 -0.21546762 0.52604753 -0.82270747 0.17513674
-0.14511146 -0.40426183 -0.011839877 -0.10521402 0.83322561 -0.54283071 0.20863685
-0.13478093 -0.40457857 -0.013373067 0.068133794 0.92898601 -0.36378932 0.1633818
-0.12587667 -0.40379378 -0.014529225 0.098194748 0.89097679 -0.44330361 0.1127292
-0.11554066 -0.40430328 -0.015419219 0.094580054 0.87186402 -0.48052859 0.11143653
-0.10591559 -0.40581408 -0.016750632 -0.032079153 0.81198585 -0.5827949 0.12407211
-0.094733171 -0.40645719 -0.013422079 -0.048790116 0.94540179 -0.32223463 0.1095105
-0.085508801 -0.40700346 -0.015069639 -0.055610649 0.905711 -0.42023194 0.10882079
-0.07559403 -0.40777019 -0.015452668 -0.036569402 0.94457316 -0.32625791 0.10675438
-0.065236159 -0.40842921 -0.01641617 -0.014960213 0.87628412 -0.48156235 0.13023122
-0.057188671 -0.40911475 -0.016476221 0.046728995 0.92124367 -0.38616881 0.11904708
-0.04719992 -0.40943933 -0.018638737 0.064968705 0.87163931 -0.48582304 0.13677895
-0.039929789 -0.40978947 -0.019760858 0.063639574 0.8244366 -0.56236494 0.12706175
-0.023365099 -0.40914565 -0.017990939 -0.21618401 0.80050862 -0.55897272 0.13753136
-0.01442998 -0.40644056 -0.014320599 -0.42234713 0.85103756 -0.31202236 0.14117998
-0.0063488022 -0.40108848 -0.014884467 -0.66743749 0.64288265 -0.37580457 0.13331927
0.23349524 -0.40429673 -0.015687248 -0.90110201 -0.26073307 0.34645861 0.13146946
-0.15117501 -0.39821386 -0.010574274 -0.096366771 0.82985556 -0.54959369 0.16278069
-0.14430238 -0.39918113 -0.011448296 -0.071394451 0.81867635 -0.56979978 0.17109504
-0.13925777 -0.39973491 -0.011762446 0.026477629 0.89897716 -0.43719453 0.15433824
-0.0018469363 -0.39690253 -0.014590295 -0.64542395 0.56398183 -0.51512367 0.13133757
0.0013176507 -0.39258176 -0.016327549 -0.67228979 0.52567637 -0.52123958 0.12617508
0.10830954 -0.39041579 -0.013460759 0.38173741 0.76075172 -0.52491266 0.12065529
0.11468807 -0.39254525 -0.015448405 0.31877315 0.75609505 -0.57158029 0.094530344
0.12443516 -0.39378244 -0.014052302 0.14081754 0.81204188 -0.56635535 0.088475361
0.13405548 -0.39360303 -0.014248863 0.047323599 0.84024125 -0.54014355 0.078477293
0.14530189 -0.3936027 -0.014606676 -0.032285728 0.86195493 -0.50595593 0.075331695
0.1546973 -0.3936027 -0.015142725 0.056324255 0.89236063 -0.44779477 0.083268724
0.16413508 -0.3936027 -0.014933902 0.027998379 0.86891949 -0.49416098 0.08051905
0.17482287 -0.39360273 -0.015835706 0.0052668015 0.8301633 -0.55749536 0.072834671
0.18523045 -0.39360273 -0.015031489 0.006909376 0.89767987 -0.44059405 0.078239165
0.19438632 -0.3936027 -0.013583297 -0.012611638 0.93210846 -0.36195961 0.07468392
0.20462124 -0.39360273 -0.015445556 -0.045057621 0.86549371 -0.49888918 0.069060251
0.21480168 -0.39360267 -0.014962458 0.18978764 0.84216923 -0.50470954 0.086804181
0.2249479 -0.39360273 -0.014309436 0.30858967 0.85381377 -0.41925469 0.12339011
0.23302825 -0.39579985 -0.015396319 0.69467884 0.5852741 -0.4181813 0.12370542
0.0060748123 -0.38400868 -0.01593199 -0.80753678 0.38526088 -0.44660765 0.11181796
0.097156502 -0.38288271 -0.013363642 0.60125273 0.69701046 -0.39073202 0.10069905
0.10232949 -0.38702357 -0.014483403 0.51417136 0.66834241 -0.53753716 0.11141179
0.0086621391 -0.37787488 -0.014943933 -0.7628817 0.30793458 -0.56849599 0.10733397
0.010771724 -0.3730076 -0.013236118 -0.87651688 0.2545777 -0.40854415 0.11983683
0.089386418 -0.37273538 -0.015262018 0.69186246 0.44988412 -0.56473953 0.11139173
0.092197247 -0.37719703 -0.015056884 0.57814091 0.53209329 -0.61857074 0.11157203
0.012146904 -0.36486539 -0.015686946 -0.86337656 0.14244787 -0.48403466 0.10311191
0.086326793 -0.36524451 -0.014274165 0.79197514 0.31786096 -0.52128667 0.11279877
0.012696878 -0.35346699 -0.014573843 -0.87569624 0.077226952 -0.47664675 0.085486107
0.084647357 -0.35518694 -0.014174368 -0.87227464 -0.17989665 0.45472428 0.092045598
0.012617815 -0.34555474 -0.014113412 -0.9009766 0.061792295 -0.42944488 0.075193241
0.084509611 -0.34513164 -0.015104643 -0.89418989 -0.08005257 0.44047239 0.07382644
0.012505516 -0.3344529 -0.014397006 -0.87685186 -0.003783789 -0.48074582 0.086961553
0.084509611 -0.33539245 -0.014274995 -0.87213576 -0.027564779 0.48848677 0.071456537
0.012505516 -0.32492104 -0.013820653 -0.89889789 0.00060660532 -0.43815774 0.071811132
0.084509611 -0.32460862 -0.013893675 -0.86445308 0.040835563 0.50105226 0.089195706
0.012505516 -0.31555566 -0.015701247 -0.85958904 0.0093231387 -0.51090097 0.080838561
0.084509611 -0.31419846 -0.014923631 -0.91256255 -0.004809841 0.40890887 0.070419811
0.012505516 -0.30638248 -0.01485239 -0.85775322 0.031737164 -0.51308095 0.075394072
0.084509611 -0.30383685 -0.014614682 -0.9077397 0.031480655 0.41835093 0.067125104
0.012505516 -0.29602155 -0.015597149 -0.83255363 0.0040673101 -0.55392951 0.073666774
0.084509611 -0.29553297 -0.015846975 -0.7951805 0.048366599 0.60444069 0.084813006
0.012505516 -0.2838451 -0.014658313 -0.83471769 0.0018553181 -0.55067497 0.072563268
0.084509611 -0.28567094 -0.014455066 -0.91183364 0.0047509596 0.41053239 0.071437746
0.012505516 -0.27427307 -0.014688017 0.90393037 0.057936992 0.42373729 0.072384015
0.084509611 -0.27538627 -0.015504173 -0.88447678 -0.027402557 0.46577892 0.066384733
0.012505516 -0.26685902 -0.014687466 -0.82204056 0.012163834 -0.56929904 0.0733371
0.084509611 -0.2660701 -0.01505733 -0.84377271 -0.015539052 0.53647554 0.089822985
0.012505516 -0.25609139 -0.014534933 -0.83842933 0.009931339 -0.54491979 0.075741909
0.084509611 -0.25569642 -0.014927214 -0.91182733 -0.040850934 0.4085364 0.069604181
0.012505516 -0.24509777 -0.014478097 -0.90362525 0.03902163 -0.42654288 0.075034782
0.084509611 -0.24634455 -0.015220263 -0.79864824 -0.049911182 0.59972495 0.090926051
0.012505516 -0.23477879 -0.014886476 -0.86499798 0.0039829398 -0.50175953 0.078276187
0.084509611 -0.23540016 -0.015654838 -0.81012344 -0.0048717908 0.58623904 0.092240669
0.012505518 -0.22497097 -0.014834976 0.86666542 0.018878944 0.4985325 0.07917507
0.084509611 -0.22635907 -0.01426161 -0.91743284 -0.018593622 0.39745584 0.072239183
0.012505516 -0.2148881 -0.014378254 0.85636044 0.017872265 0.51606923 0.082643844
0.084509611 -0.21377867 -0.013789096 -0.87418324 -0.005881771 0.48556051 0.09710142
0.012505516 -0.20391203 -0.015034305 0.81880277 0.011045594 0.57396877 0.077191658
0.084509611 -0.20394777 -0.015926108 -0.88473165 -0.016451048 0.46581042 0.075821348
0.012505516 -0.19489396 -0.015230821 -0.86222875 0.0026300987 -0.50651222 0.082564615
0.084509611 -0.19520175 -0.014618021 -0.90627378 -0.028921111 0.42170063 0.078442402
0.012505516 -0.18373667 -0.014564732 0.85414505 0.022261988 0.51955801 0.080609247
0.084509611 -0.18461499 -0.013180603 -0.94207388 0.013003606 0.33515343 0.069931485
0.012505517 -0.17585991 -0.015528558 0.81650448 0.023461472 0.57686216 0.08515127
0.084509611 -0.17618412 -0.014095678 -0.91420043 -0.02529739 0.40447211 0.075903751
0.012505516 -0.16395085 -0.014381284 0.90088534 0.036467914 0.43252257 0.076826096
0.084509611 -0.16460145 -0.014679948 -0.88332254 0.019480875 0.46836078 0.073062077
0.012505516 -0.15579712 -0.015512905 -0.86987442 0.056750856 -0.48999771 0.075179242
0.084509611 -0.15546568 -0.015848814 -0.88612717 -0.051281884 0.460596 0.06945318
0.012505516 -0.14508471 -0.015899111 0.82164639 0.018522942 0.56969649 0.08953765
0.084509611 -0.14385203 -0.015403435 -0.9089309 0.022293018 0.41635039 0.074494094
0.012505516 -0.13620044 -0.016154407 -0.81869537 0.0036402482 -0.5742166 0.081921466
0.084509611 -0.13464613 -0.014917711 -0.83134604 -0.021186197 0.55535102 0.089970283
0.012505516 -0.12467582 -0.01594808 -0.86181736 -0.00035448672 -0.50721866 0.081979156
0.084509611 -0.12521282 -0.014602434 -0.90191209 0.056465108 0.42821285 0.075684652
0.012505516 -0.11397446 -0.013198099 0.90065956 0.061295681 0.43018043 0.077663764
0.084509611 -0.11362571 -0.014831078 -0.84073395 0.059472032 0.5381723 0.081135504
0.012505516 -0.1050327 -0.015671855 -0.86188698 -0.0024085846 -0.5070948 0.080371216
0.084509611 -0.10386723 -0.015448645 -0.86803859 0.039358623 0.49493426 0.0758522
0.012505515 -0.094596624 -0.016040508 0.81173104 0.022680605 0.58359087 0.086534195
0.084509611 -0.094745018 -0.015943097 -0.82283694 0.0043044104 0.56826133 0.098145619
0.012505516 -0.084661409 -0.014795636 -0.87742919 0.0037361772 -0.47969168 0.067838967
0.084509611 -0.084714442 -0.015439048 -0.85217208 -0.0039674169 0.52324665 0.069680378
0.012505516 -0.075943731 -0.014982508 -0.87222767 0.064663269 -0.48480675 0.069753252
0.084509611 -0.07500647 -0.015261524 -0.87498569 -0.040562764 0.48244655 0.064532503
0.012505516 -0.065876216 -0.016002798 -0.84823549 0.05359577 -0.52690047 0.069786757
0.084509611 -0.064261772 -0.015561597 -0.89554238 -0.017381506 0.44463643 0.060395267
0.014730528 -0.055772271 -0.016355107 -0.8328582 0.0023128234 -0.55348164 0.057555065
0.078528471 -0.052247521 -0.018226827 -0.76544458 0.01192958 0.64339125 0.062310189
0.082691401 -0.055110022 -0.015221092 -0.88701028 -0.081062466 0.45457855 0.066478558
0.016063035 -0.043638565 -0.014900273 -0.87897974 -0.026855754 -0.47610214 0.04723699
0.07866285 -0.045520745 -0.018026905 -0.79003358 0.0007733432 0.61306298 0.049791489
0.081204168 -0.045413747 -0.01266878 -0.90249354 -0.029319325 0.42970431 0.05398877
0.016038476 -0.034302946 -0.014881581 -0.90625 0.011316249 -0.42259058 0.030259319
0.079156034 -0.034497749 -0.017293133 -0.85669827 -0.027205776 0.51509988 0.038999062
0.080802187 -0.035776272 -0.013849475 -0.9256162 -0.055238452 0.37441078 0.031983435
0.015625762 -0.024961881 -0.01402785 -0.90623283 -0.01830806 -0.42238238 0.026238985
0.078427106 -0.024783397 -0.018377624 -0.83630103 0.015105862 0.54806238 0.022369521
0.081081629 -0.023821766 -0.013033709 -0.93011338 -0.0053983033 0.36723283 0.023525519
0.015653029 -0.01586372 -0.014100679 -0.91110444 0.0070796157 -0.41211483 0.027628345
0.07842128 -0.013997684 -0.018386288 -0.8206234 0.018304709 0.57117617 0.025735151
0.081275158 -0.015133734 -0.012468716 -0.94077486 0.023536738 0.33821407 0.0277074
0.016392654 -0.0049469024 -0.01562733 -0.87865067 -0.015456803 -0.47721481 0.019440791
0.078478672 -0.0035269526 -0.018300908 -0.85818368 0.015301056 0.51311457 0.020826546
0.080907792 -0.0044421651 -0.013541192 -0.92903066 0.033750877 0.36846039 0.023975382
0.016422773 0.0059988126 -0.015719982 -0.87960601 -0.029045433 -0.47481534 0.019912215
0.078779928 0.0069588595 -0.017852675 -0.8636235 0.022617539 0.50362968 0.01526938
0.081059627 0.0036797787 -0.013097934 -0.92975748 -0.0095510846 0.36804852 0.023372427
0.015873456 0.013988812 -0.014559816 -0.88200504 0.0094650248 -0.4711448 0.020926984
0.078546338 0.012813956 -0.018200219 -0.84772092 -0.018363696 0.53012455 0.021172877
0.080977775 0.013665057 -0.013336871 -0.93113786 -0.023401678 0.36391586 0.023673395
0.016058715 0.024965513 -0.014892451 -0.89991236 0.0057312222 -0.43603313 0.023017433
0.078844018 0.024476307 -0.017757332 -0.84512931 -0.020430207 0.5341714 0.020537773
0.081143327 0.024666211 -0.012848013 -0.93040866 -0.020448463 0.36595288 0.023822146
0.016350061 0.035610169 -0.015539363 -0.87906355 0.0073670349 -0.47664768 0.01876916
0.077956378 0.035966698 -0.019077942 -0.82691681 0.0049556065 0.56230235 0.021882083
0.081658989 0.033214219 -0.011348178 -0.9457131 -0.015755743 0.32462057 0.025969898
0.015844986 0.045669265 -0.014461818 -0.90204549 -0.020770328 -0.43114096 0.02585738
0.078565903 0.044896644 -0.018171098 -0.84159607 -0.0031062916 0.54009837 0.021984521
0.080914579 0.04578352 -0.013512735 -0.9251312 0.019121742 0.37916577 0.023177793
0.016451683 0.054359939 -0.015748262 -0.87851602 0.0068581286 -0.47766355 0.020965563
0.078203708 0.056910582 -0.018709959 -0.84909993 0.01337421 0.52806282 0.019479427
0.080675744 0.05583882 -0.014218607 -0.92526245 0.028656529 0.37824348 0.0241971
0.016323151 0.064882688 -0.015462465 -0.88320881 0.0091800038 -0.46889001 0.020718673
0.078310452 0.065245233 -0.018551128 -0.83434224 0.0085650329 0.5511803 0.020287199
0.080884263 0.065298788 -0.013599406 -0.9262678 0.016579991 0.37650111 0.024825545
0.016050551 0.07314194 -0.014812029 -0.89994311 0.014768758 -0.4357571 0.02691148
0.078881472 0.07735344 -0.017701581 -0.85268533 0.0096337544 0.52233595 0.021439964
0.081061803 0.075011224 -0.013091568 -0.92606664 -0.012451652 0.37715465 0.026423058
0.016250303 0.086561978 -0.015358961 -0.87807953 0.0075007048 -0.47845599 0.020790318
0.078633033 0.084426463 -0.018071199 -0.83791554 -0.022934375 0.54531783 0.019056657
0.08104039 0.085807666 -0.013154079 -0.92668468 0.0082230596 0.37574971 0.022567939
0.015960844 0.09507858 -0.014690139 -0.90267384 -0.0055244179 -0.43028978 0.024776967
0.078798614 0.094368428 -0.017824855 -0.83587515 -0.0045478549 0.54890078 0.019411676
0.080977552 0.094415545 -0.01333754 -0.9264285 -0.012354845 0.37626809 0.023399379
0.015652942 0.10412358 -0.014132349 -0.90900946 -0.0071252165 -0.41671461 0.02645194
0.078942142 0.10583012 -0.017611308 -0.83747202 -0.00097197521 0.54647928 0.020306811
0.080996446 0.10611539 -0.013273357 -0.92903519 -0.010194836 0.36985078 0.024630457
0.015658028 0.11530003 -0.014008434 -0.89884025 -0.0036686042 -0.43826109 0.028521145
0.078721792 0.11478051 -0.017939148 -0.83747971 -0.0028090207 0.54646116 0.019312104
0.080972709 0.11437102 -0.013351678 -0.92450571 -0.0046881321 0.38113925 0.024021816
0.016431093 0.12417333 -0.015683729 -0.86931574 -0.011348413 -0.49412683 0.020233197
0.078752935 0.12395063 -0.017892804 -0.84668738 -0.0095991129 0.53200418 0.020769045
0.081097841 0.12497578 -0.012986376 -0.925982 0.0072678337 0.37749758 0.025524413
0.016096877 0.13488984 -0.015035689 -0.88251156 -0.0058765681 -0.47025397 0.020278025
0.078385688 0.13484763 -0.018439179 -0.82593584 -0.027930617 0.56307179 0.021032188
0.080929011 0.13670234 -0.013479204 -0.92763281 0.021827741 0.3728551 0.024259392
0.016633585 0.14449169 -0.016087346 -0.88060039 0.0011657324 -0.47385821 0.018685853
0.078267746 0.14542738 -0.018614633 -0.81461471 0.026325559 0.57940471 0.023306608
0.081197977 0.14314701 -0.012694049 -0.92923975 -0.024293611 0.36867788 0.024719274
0.0161546 0.1537406 -0.015109628 -0.88426077 0.020447366 -0.46654567 0.020544428
0.07851401 0.1546092 -0.018248262 -0.84075272 0.032661181 0.54043323 0.025533255
0.081180774 0.15488955 -0.012744286 -0.9276163 -0.0052379514 0.37349775 0.024131438
0.016178105 0.16573511 -0.015159733 -0.88161355 -0.018373452 -0.47161421 0.020782081
0.078413062 0.16510604 -0.018398443 -0.84485221 -0.011679105 0.53487229 0.022395875
0.080840558 0.16448332 -0.013737475 -0.92859173 -0.020733543 0.3705233 0.023337305
0.016576812 0.17438923 -0.016005917 -0.8792066 0.012980109 -0.47626391 0.020291837
0.078603342 0.17492852 -0.01811536 -0.84800571 -0.017896429 0.5296849 0.021391552
0.080839217 0.17374143 -0.01372877 -0.93154818 -0.0060933409 0.36356673 0.025196288
0.015953399 0.18438661 -0.014712759 -0.89927393 0.012266359 -0.43721381 0.027445637
0.079479203 0.18491021 -0.016812289 -0.87386221 -0.0094122086 0.48608258 0.026861977
0.081448853 0.18461943 -0.011961652 -0.93220079 -0.018458718 0.36147064 0.023826299
0.016138928 0.19543281 -0.015091297 -0.86848199 0.016788611 -0.49543622 0.020811545
0.07887356 0.19546211 -0.017713338 -0.85909635 -0.0055055474 0.51178426 0.023648722
0.080700733 0.19587734 -0.01414567 -0.93054378 0.0249191 0.36533177 0.024543159
0.015913114 0.20449241 -0.014593084 -0.89779091 -0.0056060771 -0.44038627 0.026314238
0.07840962 0.20509072 -0.018403554 -0.83341539 0.010469755 0.55254799 0.024875438
0.081250176 0.20434716 -0.012528094 -0.93042803 0.016855786 0.36608666 0.024830574
0.016422458 0.21535142 -0.015606712 -0.87171549 -0.013691396 -0.48982102 0.017414713
0.078527562 0.2150812 -0.018228099 -0.85122913 0.017340899 0.52450758 0.020698939
0.080976479 0.21545635 -0.013337529 -0.92906564 0.029759632 0.36871591 0.023090847
0.015934603 0.22574875 -0.01463549 -0.87384015 -0.011561667 -0.48607576 0.018525077
0.078428224 0.22380777 -0.018375875 -0.83624572 -0.0158634 0.54812533 0.022840036
0.081240579 0.2254339 -0.012569663 -0.92802531 -0.015930515 0.37217644 0.02308337
0.01564193 0.23523258 -0.014051641 -0.89743328 -0.010833565 -0.44101712 0.025291098
0.078121863 0.23519252 -0.018831678 -0.81922483 0.0091813402 0.57339889 0.026920907
0.080845825 0.23390783 -0.013722086 -0.92619872 -0.028386336 0.37596545 0.022927452
0.01578059 0.24354449 -0.01433863 -0.89902651 0.031100037 -0.43678835 0.02308136
0.078882031 0.24506232 -0.017700741 -0.85307407 -0.021973057 0.52132696 0.02097317
0.080883153 0.24503273 -0.013613094 -0.92531377 0.00060591358 0.3792018 0.024624195
0.015674341 0.25435305 -0.014093294 -0.9011417 0.027571915 -0.43264705 0.022795552
0.078865342 0.25588921 -0.017725568 -0.86877912 0.013287771 0.49502143 0.016582092
0.080703892 0.25626445 -0.014129214 -0.92541748 0.031075453 0.37767291 0.024502767
0.015713284 0.2650992 -0.014185539 -0.91824102 -0.00010969461 -0.39602199 0.029530047
0.078481741 0.26473096 -0.018296262 -0.8410207 -0.0081224134 0.54094195 0.021692239
0.081094965 0.26556692 -0.012994776 -0.92572212 0.014434152 0.37792882 0.024511101
0.016061783 0.2751568 -0.014958962 -0.88143706 -0.013491102 -0.47210887 0.021199303
0.078633256 0.27647725 -0.018070856 -0.84764057 0.017485259 0.53028262 0.020124771
0.081195384 0.27416965 -0.012701602 -0.93024683 -0.016323108 0.36657122 0.024189565
0.016623752 0.28585801 -0.016102975 -0.87672174 -0.02712144 -0.48023266 0.019438282
0.078783095 0.28297627 -0.017847922 -0.84387285 -0.026255138 0.53590053 0.018875305
0.081361167 0.28390735 -0.01221762 -0.92728418 -0.030174201 0.37314004 0.021870159
0.015968859 0.2955735 -0.014757575 -0.90111822 -0.023519065 -0.43293527 0.026795577
0.078415059 0.29547924 -0.018395465 -0.84689647 0.021082962 0.5313397 0.019445932
0.081064962 0.2954599 -0.013082351 -0.9279902 0.009815908 0.37247539 0.021897698
0.016645752 0.30594507 -0.01610302 -0.87978411 -0.0073902211 -0.47531602 0.019737212
0.078714371 0.30549812 -0.01795017 -0.85145003 -0.011367678 0.52431262 0.02103309
0.080957651 0.30471861 -0.013394705 -0.92814857 -0.010651387 0.37205744 0.0237328
0.01556539 0.31442302 -0.013853166 -0.89907211 0.020463353 -0.43732214 0.026714416
0.07825733 0.31661072 -0.01863013 -0.83876675 0.023044473 0.54400313 0.020697573
0.081141584 0.31616241 -0.01285868 -0.92635983 0.022885162 0.37594366 0.023815576
0.017066605 0.3242459 -0.017027555 -0.87219214 0.0022334398 -0.48915827 0.021353181
0.078630418 0.32333863 -0.018075066 -0.84990966 -0.010135397 0.52683097 0.02053611
0.081083208 0.32482716 -0.013028678 -0.92624146 -0.013078726 0.37670365 0.02296441
0.015930397 0.33492646 -0.014674844 -0.88022697 -0.0021783868 -0.47454792 0.020603504
0.078487165 0.33455577 -0.018288191 -0.83895046 0.0013929408 0.54420596 0.018976558
0.081104517 0.33522213 -0.012966873 -0.92940623 0.014320384 0.36878043 0.02520851
