# .PCD v0.7 - Point Cloud Data file format
VERSION 0.7
FIELDS x y z normal_x normal_y normal_z curvature
SIZE 4 4 4 4 4 4 4
TYPE F F F F F F F
COUNT 1 1 1 1 1 1 1
WIDTH 568
HEIGHT 1
VIEWPOINT 0 0 0 1 0 0 0
POINTS 568
DATA ascii
-0.28484532 -0.025100233 -0.16358864 0.26129776 0.90340686 -0.33996999 0.0059546409
-0.2767733 -0.027032794 -0.16484363 0.22031175 0.93038857 -0.29298449 0.0030133403
-0.26639929 -0.029156877 -0.16420005 0.19137675 0.95250684 -0.23686628 0.002654708
-0.14493363 -0.02931284 -0.16675568 -0.18463472 0.95593524 0.22824955 0.0030276733
-0.13317768 -0.027050197 -0.16514587 -0.25629818 0.92166865 0.29127002 0.0050146459
-0.12445652 -0.024505282 -0.16613077 -0.31165147 0.87619489 0.3676354 0.0082572224
-0.11759777 -0.02282143 -0.16474104 -0.32826588 0.84549373 0.42116731 0.011386267
-0.32399598 -0.011657261 -0.16846177 0.53143895 0.4227832 -0.73404831 0.050589077
-0.31392947 -0.014508491 -0.16430016 0.51864868 0.53706062 -0.66525894 0.046366338
-0.30421972 -0.018795973 -0.16384943 0.37145278 0.75863636 -0.53525114 0.02118016
-0.29751298 -0.01975422 -0.16085812 0.38746136 0.77841961 -0.49389935 0.025160814
-0.11020567 -0.019142617 -0.16607186 -0.45694172 0.71650773 0.52708721 0.023213902
-0.10456318 -0.01618121 -0.16578558 -0.49981847 0.63346201 0.59068382 0.040128835
-0.095250875 -0.012519301 -0.1624458 -0.58743286 0.46059474 0.66541362 0.039344177
-0.32465091 -0.0065948274 -0.16512848 0.55707949 0.30428886 -0.77270353 0.064616919
-0.31830475 -0.0085822269 -0.16141267 0.59416604 0.31902355 -0.73837024 0.061136179
-0.092421196 -0.0040450646 -0.16577789 -0.65472645 0.15666056 0.73945296 0.060660977
-0.087224312 -0.0038097017 -0.16149822 -0.63377184 0.21366997 0.74342346 0.051322084
-0.3325308 0.0017149178 -0.16921577 0.57535952 -0.06968201 -0.81492698 0.07214836
-0.32521313 0.0059444089 -0.16537049 0.57257086 -0.34884554 -0.74193621 0.055189963
-0.3191475 0.0083735669 -0.16166912 0.58203542 -0.32049641 -0.74733984 0.054648951
-0.094179973 0.0056952615 -0.16679381 -0.60227329 -0.2362255 0.76253819 0.05764332
-0.087367862 0.00063581439 -0.16278705 -0.67937511 -0.044830889 0.73242044 0.060184505
-0.3203772 0.012447628 -0.1670357 0.56792408 -0.46280307 -0.68064344 0.047994487
-0.31617546 0.014656024 -0.16664992 0.51502126 -0.56731576 -0.64257765 0.041102041
-0.30840573 0.017928882 -0.16500486 0.4146021 -0.69987881 -0.58161384 0.030977691
-0.29943854 0.019559477 -0.16119319 0.38990051 -0.76179492 -0.51734531 0.022718068
-0.11294428 0.019633804 -0.16704929 -0.42924219 -0.76399666 0.48172632 0.025311323
-0.1040285 0.015884582 -0.16562757 -0.51719093 -0.61892438 0.59113961 0.039023042
-0.097792976 0.012576737 -0.16471596 -0.56176782 -0.49282885 0.6644823 0.050461236
-0.089867957 0.010409675 -0.16030845 -0.58444154 -0.41483593 0.69738019 0.037808746
-0.30039403 0.02038491 -0.16367266 0.35832393 -0.78061575 -0.51209682 0.019836605
-0.29391107 0.022681767 -0.1639391 0.31143484 -0.85763162 -0.40923873 0.010812093
-0.28370029 0.026585788 -0.16738161 0.22107317 -0.92844236 -0.29853186 0.0037728078
-0.27441797 0.02776671 -0.16470127 0.20167707 -0.94402695 -0.26103529 0.0023394783
-0.26456377 0.029797811 -0.16489251 0.16813612 -0.96090502 -0.21998142 0.0023825332
-0.13335654 0.026673637 -0.16602708 -0.2433103 -0.9217912 0.30182949 0.0032113153
-0.12489986 0.024345763 -0.16637912 -0.31410909 -0.86565518 0.38984168 0.009729973
-0.11562073 0.022413785 -0.16358446 -0.35246399 -0.81959391 0.45170236 0.015751235
-0.10943022 0.020058576 -0.16320875 -0.41401318 -0.76662081 0.49080098 0.020213347
-0.26484898 0.030126262 -0.16697668 0.16342171 -0.96303028 -0.21416359 0.0025042759
-0.25427678 0.030969072 -0.16403526 0.13359667 -0.97694683 -0.16651407 0.0024538054
-0.24522062 0.031831127 -0.16260462 0.10506389 -0.98475814 -0.13861102 0.0015083629
-0.23583044 0.032977767 -0.16358399 0.086157918 -0.98973596 -0.11401606 0.00092925329
-0.2229598 0.033886857 -0.16701531 0.040508755 -0.99787539 -0.051027153 0.0012094164
-0.21468529 0.034079082 -0.16447374 0.02573533 -0.99925637 -0.028713582 0.0011820053
-0.20494772 0.034340668 -0.16659398 -0.0033304223 -0.99999309 0.0016512768 0.0012614714
-0.19483589 0.034103874 -0.16573514 -0.026265642 -0.99899071 0.036436755 0.0013096437
-0.18455729 0.033724044 -0.16525559 -0.059479382 -0.9954688 0.074188977 0.0016239433
-0.17668161 0.033368886 -0.16504401 -0.072008416 -0.99375498 0.085239694 0.0012181686
-0.16564451 0.032185562 -0.16604425 -0.10837491 -0.98516572 0.13305388 0.0018052247
-0.15619782 0.031334236 -0.16376132 -0.12686904 -0.97985297 0.15424803 0.0015639378
-0.14819023 0.030426234 -0.16323237 -0.15229248 -0.97248453 0.17629761 0.0018539749
-0.2528874 -0.030155115 -0.15815742 0.17122531 0.96318334 -0.20726728 0.0026873087
-0.24368916 -0.030758433 -0.15535121 0.14504573 0.97110665 -0.1895088 0.0026353574
-0.23551258 -0.031600472 -0.15469763 0.10867243 0.98254853 -0.15095961 0.0018423358
-0.2254715 -0.03286761 -0.15513523 0.090780899 0.98967028 -0.11095757 0.0012779109
-0.21451184 -0.033536691 -0.15443318 0.07298512 0.99341947 -0.088265553 0.0012024638
-0.20637007 -0.033886589 -0.15503365 0.051629804 0.99632794 -0.068300664 0.00086949969
-0.19483039 -0.034328829 -0.15517968 0.0074744066 0.99984282 -0.016077869 0.001418398
-0.18406999 -0.034241937 -0.15458974 -0.013142566 0.99984217 0.011950853 0.0013343922
-0.17510764 -0.033810101 -0.15676248 -0.060281098 0.99529392 0.075869575 0.0011338497
-0.16562824 -0.033571783 -0.15377605 -0.06743627 0.99461806 0.078659192 0.0011192389
-0.15643972 -0.032760244 -0.15539119 -0.092460826 0.9888339 0.11686943 0.0012305988
-0.14609118 -0.031486236 -0.155211 -0.12574485 0.97877586 0.1618208 0.0027207138
-0.13698794 -0.03077518 -0.15218754 -0.14521271 0.97339141 0.17726386 0.0023035491
-0.2944634 -0.020316426 -0.15982421 0.33312431 0.82541203 -0.45576656 0.015544996
-0.2835485 -0.022210436 -0.15561254 0.31102026 0.85044426 -0.42427701 0.013083251
-0.2762785 -0.024677178 -0.15610194 0.24806534 0.90847319 -0.33636317 0.0054961238
-0.26765686 -0.026052052 -0.15413426 0.22559746 0.92827159 -0.29566488 0.0022446325
-0.25656992 -0.028477376 -0.15429926 0.18484364 0.95180655 -0.24473901 0.002400243
-0.24857734 -0.029403688 -0.15123039 0.18854901 0.9536072 -0.23469661 0.0025459763
-0.13937932 -0.029865248 -0.15998809 -0.18390033 0.95547688 0.23074806 0.002581184
-0.12533374 -0.028119635 -0.15474682 -0.22779465 0.93526083 0.27091831 0.0038356998
-0.11639624 -0.026038099 -0.15448552 -0.26436952 0.90532434 0.3324104 0.0043552872
-0.10381004 -0.022815751 -0.1529696 -0.33992454 0.85342717 0.39511189 0.010353277
-0.096854888 -0.02112622 -0.15057328 -0.36245674 0.82083899 0.44141635 0.012838211
-0.3033303 -0.01460179 -0.15663679 0.47825325 0.58739591 -0.65287054 0.038181711
-0.29551411 -0.017569227 -0.15515934 0.4160704 0.70767456 -0.57103598 0.023394408
-0.28527215 -0.019380469 -0.15079153 0.42038354 0.73507369 -0.5319252 0.022374924
-0.10130206 -0.018592104 -0.15959388 -0.43430787 0.72960961 0.52824855 0.02040825
-0.094764873 -0.01693823 -0.15640956 -0.46681705 0.676732 0.5693115 0.031296495
-0.086277276 -0.012557799 -0.15473145 -0.56482029 0.48134172 0.67028964 0.031705998
-0.31538245 -0.0046796147 -0.15742134 0.54904443 0.13441524 -0.8249138 0.066269092
-0.30683565 -0.0068946788 -0.1520343 0.5968945 0.23891899 -0.76592082 0.062311951
-0.081655338 -0.0066236816 -0.15570565 -0.61941016 0.28864554 0.7300787 0.043523233
-0.077791743 -0.0065743267 -0.15235828 -0.63788974 0.21131608 0.74056876 0.056703094
-0.31367809 0.0031650923 -0.15570198 0.61296475 -0.1371977 -0.77810735 0.075300276
-0.30656773 0.0069304281 -0.15179992 0.61245269 -0.24282984 -0.75228679 0.068399146
-0.083660886 0.0061537749 -0.15754661 -0.65608335 -0.21843818 0.72238445 0.052219186
-0.076224171 0.0061132819 -0.15120739 -0.65690631 -0.19733554 0.72768998 0.059306204
-0.31106812 0.010323595 -0.15749937 0.56088185 -0.42053407 -0.71313572 0.046016268
-0.30350146 0.013844769 -0.1560372 0.46629488 -0.56346369 -0.68196613 0.047648553
-0.29524383 0.018362736 -0.15590107 0.38680005 -0.73384315 -0.5584442 0.025975591
-0.10162673 0.018973207 -0.15883785 -0.45063952 -0.71771288 0.53085989 0.018982405
-0.095312007 0.01722605 -0.15645777 -0.50114298 -0.65271163 0.56817526 0.022914611
-0.085357264 0.011952052 -0.15470454 -0.60060501 -0.42953712 0.67436743 0.044320811
-0.29156005 0.020561263 -0.15735421 0.33494446 -0.80862099 -0.48367786 0.018439328
-0.28267106 0.022070568 -0.15398115 0.33135369 -0.83006102 -0.44855696 0.015433918
-0.27417302 0.025621206 -0.15685387 0.24076591 -0.91413927 -0.32616106 0.0043026572
-0.26501045 0.027037542 -0.15477763 0.21907389 -0.93096882 -0.29206803 0.0024739187
-0.25586706 0.029089008 -0.15542248 0.19001289 -0.95180243 -0.24076374 0.0021854932
-0.13545053 0.029888028 -0.15657845 -0.19298738 -0.95631534 0.21958323 0.0029412352
-0.12361468 0.027450269 -0.15521076 -0.25090781 -0.92258769 0.29304835 0.004636392
-0.11570301 0.025954152 -0.15381607 -0.26235202 -0.91562563 0.30463278 0.0046400065
-0.10893956 0.023368785 -0.15556481 -0.33256933 -0.85714489 0.39331955 0.010322671
-0.25304952 0.030373888 -0.15938134 0.14594248 -0.97006607 -0.19409433 0.0018101319
-0.24424554 0.03084367 -0.15548694 0.13353467 -0.97403026 -0.1828485 0.0021852138
-0.23645613 0.031732645 -0.15518297 0.12570731 -0.98052913 -0.15086497 0.0017400228
-0.22377627 0.033182032 -0.1557758 0.07467448 -0.99281001 -0.093552224 0.00089443254
-0.21548919 0.033643182 -0.15622573 0.061714958 -0.99522632 -0.075602427 0.0012653999
-0.2046897 0.03401944 -0.15527186 0.033752404 -0.99801046 -0.053253423 0.0014458869
-0.19626373 0.034312565 -0.15508783 0.012558415 -0.99959731 -0.025446333 0.0014801795
-0.18547581 0.034287136 -0.15337703 -0.00099665415 -0.99999881 -0.0011770667 0.0012996498
-0.17540246 0.033904899 -0.15410215 -0.04730482 -0.9974457 0.053519849 0.0013116727
-0.1642642 0.033306446 -0.15619199 -0.084162667 -0.99078989 0.10607555 0.0013895078
-0.15487172 0.032612909 -0.15446231 -0.099789172 -0.9885577 0.11311875 0.002117299
-0.14454223 0.031165147 -0.15527485 -0.14506613 -0.97418207 0.17298898 0.0023473778
-0.13314067 0.030093089 -0.15314415 -0.18773344 -0.95733076 0.21971332 0.0030434607
-0.24066767 -0.030012075 -0.1476734 0.1681806 0.96121567 -0.21858589 0.0029467724
-0.23472145 -0.030439304 -0.14612548 0.14500794 0.97049493 -0.19264595 0.0033279809
-0.22586793 -0.031265177 -0.14497498 0.13265076 0.97744066 -0.16435803 0.002478861
-0.2141369 -0.032257557 -0.14230654 0.095527314 0.98666531 -0.13178088 0.0017971334
-0.20688576 -0.033410832 -0.14575332 0.071454763 0.99346989 -0.088947549 0.001359142
-0.19468379 -0.033877227 -0.14554334 0.037433013 0.99821287 -0.046581831 0.0011799911
-0.18711188 -0.034120273 -0.14430456 0.030670598 0.99860257 -0.043037612 0.0010445522
-0.17387858 -0.034319345 -0.14511248 -0.025295652 0.99939024 0.02406862 0.001167174
-0.16592009 -0.033956889 -0.14623763 -0.043494351 0.9974696 0.056237303 0.0014358948
-0.15625919 -0.033612702 -0.14529103 -0.064952128 0.99508065 0.074804746 0.0010610765
-0.14651486 -0.033087991 -0.14487277 -0.081564188 0.99144435 0.10190877 0.0012061987
-0.13466534 -0.031534366 -0.14538904 -0.13891971 0.97824448 0.15407449 0.0019256718
-0.12832099 -0.030838547 -0.14456512 -0.13802823 0.97597802 0.16856764 0.0020057196
-0.27428287 -0.020474521 -0.14496966 0.36399412 0.79671651 -0.48244292 0.015280325
-0.26626584 -0.022827726 -0.14361338 0.29988053 0.86027908 -0.41230026 0.0097713787
-0.25353229 -0.026646569 -0.14555518 0.22925904 0.92939132 -0.28926107 0.0031684886
-0.24658772 -0.028420072 -0.14638747 0.20587544 0.94428813 -0.25677833 0.0024679189
-0.2378258 -0.029155115 -0.1420716 0.18730792 0.95141172 -0.24440037 0.0029968582
-0.12370195 -0.029406101 -0.14876103 -0.20499074 0.94692624 0.24760744 0.0030338953
-0.11343303 -0.028638566 -0.14284919 -0.21397363 0.94272649 0.25589433 0.0032820369
-0.10407444 -0.025950894 -0.14435762 -0.26955029 0.90819025 0.3202081 0.0033337725
-0.096048646 -0.02393847 -0.14400738 -0.32979807 0.86152023 0.38602597 0.010509619
-0.085592031 -0.020833194 -0.1415481 -0.35622576 0.841061 0.40708682 0.010057664
-0.29447576 -0.012114001 -0.14682521 0.52481657 0.52305478 -0.67155129 0.043154854
-0.28405926 -0.017238954 -0.14611521 0.44261834 0.67695403 -0.58806646 0.027700197
-0.27679774 -0.019266287 -0.14414752 0.36288351 0.75780272 -0.54226428 0.017176107
-0.090181388 -0.019923527 -0.1473449 -0.39889607 0.78584313 0.47258073 0.023269173
-0.084208176 -0.016882144 -0.14736925 -0.48378021 0.65708041 0.57810211 0.036228832
-0.075806588 -0.014072482 -0.14397593 -0.57054478 0.47744909 0.66822237 0.038257416
-0.068199068 -0.010619083 -0.14141147 -0.61241871 0.36066294 0.70346683 0.051781788
-0.30191696 -0.0041411621 -0.14717686 0.61595619 0.14397079 -0.77451301 0.081782065
-0.29621232 -0.0059639849 -0.14362344 0.57046455 0.34475088 -0.74546432 0.055927694
-0.073262043 -0.0047969441 -0.14912589 -0.65474927 0.13676098 0.74337059 0.059373967
-0.066099882 -0.0057990034 -0.14254084 -0.61305511 0.20434895 0.76315451 0.055824764
-0.30287576 0.002926677 -0.14754197 0.57148725 -0.077598758 -0.81693375 0.076852806
-0.29569399 0.0062251315 -0.14340129 0.57355946 -0.27065113 -0.7731607 0.064184144
-0.072226509 0.0059401514 -0.14772117 -0.65630877 -0.19615521 0.72854787 0.065895617
-0.066696703 0.0057357834 -0.14312568 -0.64571035 -0.15958013 0.74672103 0.060630519
-0.29334614 0.012446032 -0.14674887 0.48940223 -0.5537101 -0.67371398 0.031112721
-0.2845954 0.016502617 -0.14519301 0.42845684 -0.653 -0.62451237 0.023041127
-0.27661577 0.019104971 -0.14310266 0.40287998 -0.7384041 -0.54078382 0.025292005
-0.085017078 0.017778294 -0.14697932 -0.48343354 -0.6685909 0.56504703 0.026178673
-0.074335173 0.014700579 -0.14180084 -0.54171371 -0.54184121 0.64261532 0.038417004
-0.069278032 0.012550454 -0.14018691 -0.54084957 -0.49831221 0.67761838 0.043619532
-0.27289692 0.022920165 -0.14843324 0.30230793 -0.86531454 -0.39980075 0.0093338629
-0.26280057 0.024390776 -0.14465438 0.28492662 -0.88416344 -0.37023222 0.01025677
-0.25432205 0.026975973 -0.14640172 0.22617656 -0.92886138 -0.29336101 0.0035528669
-0.24476086 0.028759347 -0.14560647 0.19616552 -0.94474077 -0.26264793 0.0018179282
-0.23561716 0.029403567 -0.14095891 0.18368055 -0.95560598 -0.23038803 0.0025500362
-0.12291488 0.029320514 -0.14815898 -0.20796546 -0.94698286 0.24489559 0.003231392
-0.11548903 0.027718276 -0.14751805 -0.23084196 -0.93505716 0.26903546 0.0047716489
-0.10384588 0.025458371 -0.14561257 -0.28339118 -0.89612675 0.34153518 0.0050065243
-0.094766647 0.022232836 -0.14628161 -0.36664742 -0.82407409 0.43182346 0.00966118
-0.086914733 0.020773046 -0.14271505 -0.40262029 -0.78378904 0.4728336 0.014518103
-0.23338725 0.030689843 -0.14612333 0.14884329 -0.97017139 -0.19134559 0.0022211382
-0.22381762 0.031641912 -0.1446359 0.11611057 -0.9819544 -0.1492783 0.00211302
-0.21634375 0.032649312 -0.14597553 0.085627787 -0.98998094 -0.11227491 0.0010721309
-0.20599966 0.033360913 -0.14458026 0.074945875 -0.99239516 -0.097646654 0.0014107528
-0.19616608 0.033866093 -0.14539233 0.051438477 -0.99622858 -0.069876477 0.0015819777
-0.18479192 0.034234073 -0.14406228 0.020694034 -0.99937272 -0.02873859 0.0015773972
-0.17678891 0.034331422 -0.14507638 -0.0083463602 -0.99988014 0.013040449 0.0012467833
-0.16530085 0.033992816 -0.14422421 -0.037848808 -0.99825227 0.045386259 0.0013257505
-0.15500197 0.033634834 -0.14316264 -0.052231081 -0.99652481 0.06488622 0.0010096299
-0.14568853 0.032733742 -0.14593287 -0.093454696 -0.98944682 0.11072992 0.0013384632
-0.13591254 0.031699855 -0.1448065 -0.12919419 -0.97968358 0.15339138 0.0023493695
-0.12553053 0.030637801 -0.14311771 -0.15405072 -0.96894258 0.19343901 0.0033844779
-0.22558197 -0.030325387 -0.13823459 0.1569576 0.96550047 -0.20778149 0.0033461845
-0.21248186 -0.031360563 -0.13513672 0.12887336 0.97705936 -0.16954854 0.0022694045
-0.20538732 -0.032024182 -0.13377954 0.10862397 0.98317248 -0.14687631 0.0019069007
-0.19587915 -0.033029288 -0.1330626 0.095131435 0.98846859 -0.11781244 0.001295637
-0.18463902 -0.033776987 -0.13549086 0.046369117 0.99745405 -0.054178692 0.00091922993
-0.17336223 -0.034326673 -0.13763666 0.0079391897 0.99994558 -0.0067723677 0.0011093343
-0.16625699 -0.034396768 -0.13332506 0.0043081823 0.99995178 -0.0088189775 0.0015034109
-0.15555666 -0.034123227 -0.1344391 -0.037429105 0.99876666 0.032622486 0.0010889122
-0.14498046 -0.033670306 -0.13490956 -0.06309814 0.9953047 0.073396944 0.0014759187
-0.1336417 -0.032823689 -0.13610609 -0.098482184 0.98735344 0.12423577 0.0011889148
-0.12590082 -0.03197718 -0.13525403 -0.11906844 0.9822787 0.14474499 0.0019311882
-0.11455511 -0.030686617 -0.13407671 -0.1645544 0.96858513 0.18645304 0.0033877464
-0.10762421 -0.030129869 -0.13187328 -0.18257633 0.96046901 0.21015523 0.0031318811
-0.26046762 -0.020247921 -0.13404737 0.37149441 0.78807884 -0.49083978 0.022652246
-0.25233209 -0.023118714 -0.13365574 0.302398 0.86894155 -0.39178571 0.010161268
-0.2441543 -0.025766926 -0.13507017 0.2471142 0.91737616 -0.31201851 0.0039548818
-0.23436837 -0.027690355 -0.13435221 0.20127141 0.94299036 -0.26506403 0.0029136187
-0.22497472 -0.029026937 -0.13169155 0.1937613 0.94657594 -0.25777987 0.0025626407
-0.11022195 -0.029315943 -0.13785787 -0.20068327 0.94568151 0.25575897 0.0030203389
-0.10333693 -0.029251689 -0.13215871 -0.21626261 0.94447303 0.2473889 0.0036847899
-0.094208449 -0.025889786 -0.13613214 -0.26649705 0.90723217 0.32543695 0.0036919061
-0.085421339 -0.022578495 -0.13761404 -0.34289771 0.85416842 0.39091885 0.008656092
-0.076662824 -0.020231921 -0.13514712 -0.39868993 0.7847048 0.47464174 0.021955276
-0.27505165 -0.013976541 -0.13440832 0.50549424 0.54160762 -0.67166716 0.040663619
-0.2645154 -0.018249709 -0.13260373 0.42595431 0.7250948 -0.54111028 0.023893232
-0.080692939 -0.019648243 -0.13980013 -0.44887832 0.7614457 0.46766299 0.026419848
-0.074874543 -0.0178112 -0.13796863 -0.46740416 0.6905489 0.55197424 0.027627217
-0.064889193 -0.014463493 -0.13426313 -0.58600622 0.47585797 0.65586263 0.039420735
-0.29205668 -0.0012741992 -0.13877667 0.60842627 0.096360028 -0.78773868 0.085016169
-0.28543484 -0.0053370665 -0.13531536 0.55149472 0.32624522 -0.76773548 0.056751013
-0.27906442 -0.0070323464 -0.13113602 0.60986769 0.23441066 -0.75704235 0.059060249
-0.060703676 -0.0051268693 -0.13817781 -0.64401996 0.25356084 0.72176534 0.05421355
-0.056596909 -0.0035099154 -0.1352066 -0.62915802 0.21402685 0.74723005 0.052645233
-0.29196346 0.0011159385 -0.13871019 0.59323084 -0.014219699 -0.80490673 0.073832624
-0.2830016 0.0034442057 -0.1328807 0.60507071 -0.094086401 -0.79059297 0.08423806
-0.062001437 0.005920954 -0.13879998 -0.61440533 -0.22978126 0.75478923 0.042242754
-0.056261778 0.0039521586 -0.13476042 -0.61147314 -0.19914457 0.76579505 0.048147596
-0.28544068 0.010469022 -0.13850164 0.52629244 -0.45303363 -0.71956712 0.046265353
-0.27589941 0.014752974 -0.13640226 0.48436573 -0.58710927 -0.64860809 0.031135023
-0.26590404 0.017962346 -0.1330689 0.4458352 -0.7035476 -0.55340016 0.024736386
-0.080809586 0.019752793 -0.1396461 -0.43637997 -0.74146765 0.50970417 0.028533222
-0.073647417 0.018349823 -0.13627276 -0.48421291 -0.64984608 0.58586526 0.03301651
-0.065463707 0.014937576 -0.13395901 -0.52176076 -0.56569058 0.63856083 0.042437591
-0.059151597 0.01180004 -0.13228366 -0.5628705 -0.441466 0.69877362 0.040973801
-0.26364481 0.021563172 -0.13834514 0.32672769 -0.84641212 -0.4205181 0.011105881
-0.25369388 0.023238152 -0.13473536 0.31762114 -0.85932016 -0.40085623 0.012952683
-0.24453461 0.025414752 -0.1335516 0.26750219 -0.900828 -0.34198168 0.0056139282
-0.23387034 0.028353535 -0.13563453 0.19750008 -0.94728303 -0.25228664 0.0028085571
-0.21996613 0.029943146 -0.131088 0.16755527 -0.96338135 -0.20933607 0.0029278055
-0.10375041 0.028100932 -0.13642049 -0.2203916 -0.93951076 0.26219666 0.0026155433
-0.094445974 0.026414219 -0.13438228 -0.25917816 -0.91763014 0.30129978 0.0048508039
-0.085830763 0.024209669 -0.13407731 -0.33416346 -0.86287338 0.37918907 0.0097823618
-0.07652764 0.021396752 -0.13261633 -0.36017334 -0.84030479 0.40517044 0.010247857
-0.22256558 0.030120153 -0.13420153 0.16209468 -0.96344686 -0.21329685 0.0031345349
-0.21476632 0.030839857 -0.13263945 0.14602737 -0.97231555 -0.18242376 0.0027377405
-0.20562319 0.03214933 -0.13394049 0.10843205 -0.9841786 -0.14012495 0.0018655453
-0.19463953 0.033492964 -0.13693677 0.081778355 -0.99214089 -0.094703525 0.0013753881
-0.18538454 0.033759993 -0.1348054 0.071147338 -0.99383569 -0.08502236 0.00098870101
-0.17520805 0.034090739 -0.13330473 0.023406878 -0.99900818 -0.037878752 0.0015506044
-0.16428365 0.034386326 -0.13393308 -0.003667519 -0.99997503 -0.0060387002 0.0016431513
-0.15303366 0.033816408 -0.13787717 -0.049499579 -0.99663121 0.065392271 0.0011039414
-0.14545164 0.033679519 -0.13452961 -0.05569509 -0.99560076 0.075346239 0.0012164169
-0.13463455 0.032948546 -0.13524005 -0.092696376 -0.98929125 0.11273929 0.0017655282
-0.12687542 0.032093152 -0.13491021 -0.12098562 -0.98271358 0.1401305 0.0021307003
-0.11515474 0.030730793 -0.13401534 -0.14899485 -0.97250414 0.1789867 0.0021864772
-0.21376422 -0.030170135 -0.12797445 0.16334718 0.96141988 -0.22133563 0.0028939846
-0.20414597 -0.030875377 -0.12540585 0.14256252 0.97326243 -0.18010059 0.00225879
-0.19735342 -0.03168384 -0.12531123 0.1232546 0.97988242 -0.15696737 0.0014415378
-0.18574913 -0.03313731 -0.12560219 0.086757042 0.9901166 -0.11019205 0.0016046504
-0.17430995 -0.03366204 -0.12473988 0.06315168 0.9949078 -0.078551456 0.0014938829
-0.16295624 -0.034155808 -0.12561344 0.028645338 0.9992134 -0.027425338 0.0012104702
-0.15740919 -0.034288161 -0.12387002 0.016546328 0.99971062 -0.017462451 0.0010143036
-0.14523964 -0.034166813 -0.12508872 -0.018141789 0.99919754 0.035709344 0.0015035243
-0.13478094 -0.033739965 -0.1251699 -0.061993103 0.99530673 0.074305803 0.0014465507
-0.12521397 -0.033286523 -0.12422621 -0.079942666 0.99220008 0.095645972 0.0010628966
-0.11158832 -0.032199658 -0.12191141 -0.11524401 0.98418993 0.13449536 0.0018941821
-0.10681016 -0.030880868 -0.12638332 -0.15534191 0.96767682 0.19867177 0.0035624406
-0.095856719 -0.030199155 -0.1216313 -0.19860961 0.95466942 0.22172174 0.0036994321
-0.25196326 -0.020045329 -0.12718195 0.36805183 0.79983574 -0.47413152 0.017667117
-0.24474733 -0.021905527 -0.12546474 0.33086148 0.84664315 -0.41680449 0.011020843
-0.23584339 -0.024415597 -0.12435297 0.26952365 0.88629061 -0.37662467 0.0082801236
-0.22380888 -0.027438262 -0.12545492 0.21283212 0.9320004 -0.29339013 0.0034727633
-0.21771187 -0.028501689 -0.12430489 0.20515651 0.94030589 -0.27154303 0.0025652726
-0.10226537 -0.029900666 -0.12885118 -0.19926544 0.95341164 0.22649388 0.0039427998
-0.094572313 -0.028981026 -0.12576191 -0.2120108 0.9464131 0.24362618 0.0036140494
-0.083330959 -0.026169609 -0.12605105 -0.25923529 0.91799384 0.30014044 0.0043178983
-0.075310454 -0.024334257 -0.12504861 -0.34274256 0.86322153 0.37064305 0.010001269
-0.067230076 -0.021834388 -0.12369134 -0.35366061 0.84081089 0.40983087 0.0091482811
-0.26434454 -0.013511976 -0.12584393 0.50441444 0.53851104 -0.67496073 0.034765869
-0.25420362 -0.017204702 -0.12352058 0.43260127 0.71390992 -0.5506258 0.023795536
-0.24390075 -0.019563053 -0.12002043 0.40558323 0.7710945 -0.49083146 0.026555493
-0.062408328 -0.018300273 -0.1268373 -0.47542638 0.6948272 0.53961551 0.029033035
-0.053573709 -0.012927662 -0.12621024 -0.57930893 0.48483798 0.65523529 0.04219969
-0.049125832 -0.011065002 -0.12445012 -0.62365353 0.38106495 0.68252897 0.055067483
-0.27456942 -0.0044741812 -0.12687665 0.58328187 0.21393622 -0.78359026 0.058773894
-0.26736328 -0.0044920379 -0.12149232 0.61178046 0.30752093 -0.72880417 0.052469831
-0.051223423 -0.0079581887 -0.12899017 -0.6340149 0.23932855 0.73535502 0.048062272
-0.045390602 -0.0052633923 -0.12491146 -0.61755323 0.22435084 0.7538532 0.048888236
-0.27557254 0.0040571759 -0.12758203 0.57621711 -0.22429264 -0.7859177 0.072493918
-0.26780304 0.0054207593 -0.12230652 0.59853292 -0.24477936 -0.76278526 0.068770796
-0.052362181 0.0081483172 -0.12990566 -0.61724287 -0.28543997 0.73316795 0.049868844
-0.045697398 0.0049632946 -0.12519909 -0.65599447 -0.17248268 0.73479325 0.05679683
-0.038951766 0.0012106419 -0.12079147 -0.65967304 -0.029967403 0.75095499 0.059233066
-0.26510695 0.012392729 -0.12553021 0.54460651 -0.50346047 -0.67076921 0.039577771
-0.25547063 0.018173475 -0.12567763 0.43375418 -0.70049238 -0.56671667 0.025069267
-0.24819092 0.019474072 -0.12240063 0.43382317 -0.73425686 -0.52217263 0.021612413
-0.062345225 0.017963085 -0.12723888 -0.45970204 -0.69792753 0.54915506 0.027495692
-0.055371769 0.016270719 -0.12374777 -0.52814239 -0.58744454 0.61316764 0.042619005
-0.04739432 0.011683297 -0.12226535 -0.58970737 -0.44568759 0.67350405 0.04972361
-0.25203884 0.020916913 -0.12812284 0.36353764 -0.79715562 -0.48206162 0.014988657
-0.24359298 0.023313889 -0.1269791 0.31037614 -0.85574627 -0.41396245 0.01213331
-0.23652133 0.023812007 -0.12301197 0.30839962 -0.86391824 -0.39816448 0.0099423733
-0.22479333 0.027104573 -0.12423836 0.22835605 -0.92470145 -0.30459911 0.0041036964
-0.21680126 0.028826112 -0.12423079 0.19407934 -0.9479652 -0.25237906 0.0042270827
-0.20894021 0.029366229 -0.12016061 0.1811716 -0.95549607 -0.23281792 0.0034092553
-0.095282495 0.029178314 -0.12554562 -0.21183504 -0.94294113 0.25688133 0.0024796659
-0.086110331 0.027469717 -0.12388469 -0.24721989 -0.92231917 0.29700106 0.0045599886
-0.07485231 0.023254918 -0.12696177 -0.35539094 -0.84237862 0.40508708 0.010711181
-0.067176946 0.022249054 -0.122788 -0.36049879 -0.84147102 0.4024514 0.0089756064
-0.21300611 0.0302632 -0.12769 0.15495487 -0.96950644 -0.18985839 0.0022864982
-0.2041125 0.031001702 -0.12539761 0.14045464 -0.97384495 -0.1786018 0.0023060727
-0.19759353 0.031928565 -0.12623371 0.10903867 -0.98543143 -0.13051981 0.0017945986
-0.18670227 0.033137623 -0.12592411 0.081025317 -0.99032891 -0.11262115 0.0014173477
-0.17482546 0.033649076 -0.12429886 0.063222572 -0.99493098 -0.078199625 0.0015591563
-0.16358472 0.034172643 -0.12588419 0.022574799 -0.99935919 -0.027776934 0.0014129377
-0.15457894 0.034312963 -0.12526196 -0.0058499514 -0.99996501 0.0059745242 0.0013780461
-0.14500611 0.034134038 -0.12512295 -0.021469954 -0.99946713 0.024587976 0.0013282062
-0.13403766 0.033707622 -0.12480773 -0.060539048 -0.99545246 0.073549494 0.0015848534
-0.12619033 0.033291824 -0.12454541 -0.07279221 -0.99333692 0.089347832 0.0013285285
-0.11388604 0.031949539 -0.12519549 -0.11282929 -0.98400187 0.13787632 0.0016347477
-0.10435665 0.030772636 -0.12488499 -0.16934627 -0.96410203 0.20452169 0.0026787163
-0.19455074 -0.030365126 -0.11445382 0.16921347 0.96048784 -0.22097544 0.0024831677
-0.18427432 -0.031625427 -0.11463892 0.12316032 0.97984046 -0.15730293 0.0023100455
-0.17246914 -0.03325972 -0.11614092 0.079717413 0.99145967 -0.10321287 0.0010992211
-0.16498443 -0.033591576 -0.11607955 0.071087889 0.9933117 -0.090985291 0.001545514
-0.15581541 -0.033883229 -0.11446587 0.047017224 0.99636692 -0.071009554 0.0010390193
-0.14419673 -0.034428596 -0.1159673 0.00072645134 0.99999106 -0.0041554305 0.0010256127
-0.13450319 -0.0341876 -0.11598344 -0.033944275 0.99873734 0.037033629 0.0014828553
-0.12686561 -0.034058027 -0.11232746 -0.036182776 0.99851692 0.040680204 0.0015855805
-0.11497155 -0.033482898 -0.11409397 -0.074643783 0.99346477 0.086348832 0.0012876969
-0.10389707 -0.032277428 -0.11500912 -0.11236604 0.98532712 0.12846939 0.0012388763
-0.094962992 -0.031044262 -0.11544363 -0.17492016 0.96305853 0.20474687 0.0028394102
-0.087899826 -0.030434005 -0.11334773 -0.17654315 0.96222603 0.20725253 0.0031000227
-0.23416615 -0.021698818 -0.11693255 0.32339737 0.84961122 -0.41662329 0.009961484
-0.22615325 -0.023933036 -0.11606216 0.27938899 0.8861835 -0.36962205 0.0079570934
-0.21443991 -0.02619303 -0.11400298 0.23038501 0.92442524 -0.30390891 0.0035753334
-0.20609674 -0.028017443 -0.11370017 0.21918035 0.93392456 -0.28239128 0.003260239
-0.086375214 -0.02931048 -0.117583 -0.20649543 0.94968832 0.23548192 0.0033162618
-0.075163759 -0.027244948 -0.11523109 -0.23224227 0.93013108 0.28446379 0.0038852738
-0.063012674 -0.023752451 -0.11558992 -0.32539764 0.85379714 0.40638247 0.0090187741
-0.057233319 -0.022183714 -0.11430366 -0.35758835 0.83577108 0.41667396 0.0099085392
-0.25501364 -0.012492428 -0.11767049 0.50891811 0.47280955 -0.71934247 0.042181879
-0.24389008 -0.016181303 -0.11399906 0.45632035 0.63583648 -0.62248188 0.034630813
-0.23945653 -0.019273583 -0.11601972 0.38372999 0.78164405 -0.49171513 0.018986603
-0.052569807 -0.018440204 -0.11805557 -0.48743752 0.69608086 0.5271396 0.030273585
-0.044487264 -0.016247619 -0.11421593 -0.52623099 0.61334687 0.58897078 0.041180156
-0.038681168 -0.012796016 -0.11350228 -0.56619257 0.4657121 0.68010163 0.043617103
-0.26273331 -0.003194385 -0.11753807 0.56528425 0.12483915 -0.81539494 0.0697641
-0.25659782 -0.0063923812 -0.11424383 0.56262225 0.29224989 -0.7733345 0.060787637
-0.034472868 -0.0043304139 -0.11581854 -0.62814116 0.21149297 0.74880528 0.052291259
-0.026955262 -0.0014928788 -0.11033622 -0.61089963 0.18602704 0.76954246 0.051717326
-0.26238859 0.0037391174 -0.1176002 0.61136758 -0.11046992 -0.78359812 0.078774892
-0.25598782 0.0070066787 -0.11406984 0.57970732 -0.32996091 -0.74502695 0.068366989
-0.040779725 0.0089073442 -0.11949874 -0.63714987 -0.2967591 0.71131861 0.064123861
-0.034218412 0.0055355406 -0.11513157 -0.62600935 -0.15437847 0.76438177 0.055370651
-0.029217137 0.0038472335 -0.11145332 -0.65250766 -0.131364 0.74630916 0.059456576
-0.25375509 0.012871836 -0.11753036 0.54915577 -0.46766189 -0.69261843 0.037784133
-0.24454957 0.016268587 -0.11449792 0.46758711 -0.60372114 -0.64566481 0.03553614
-0.2360069 0.017947784 -0.11037938 0.40048975 -0.72747916 -0.55711937 0.031450704
-0.050723746 0.017795607 -0.1174278 -0.48411208 -0.67362714 0.55844599 0.031897854
-0.045309063 0.016355142 -0.11470225 -0.53010041 -0.58299696 0.61571753 0.040622734
-0.037089735 0.011887151 -0.11314312 -0.5918113 -0.44345912 0.67312956 0.050184801
-0.23619667 0.021138711 -0.11662291 0.33774146 -0.82638526 -0.4505752 0.015669666
-0.22563311 0.02368412 -0.11436245 0.28871223 -0.86786449 -0.40429753 0.0093659973
-0.21451223 0.027121494 -0.11637475 0.22325784 -0.9272989 -0.3004542 0.0039176974
-0.20620774 0.028595096 -0.11519113 0.20539001 -0.94360185 -0.25967377 0.0049098814
-0.1974252 0.029766873 -0.1129148 0.16719776 -0.95835507 -0.23151781 0.0023572589
-0.084612608 0.02934649 -0.11597091 -0.20580268 -0.94609308 0.25010633 0.0046471725
-0.074573301 0.026362529 -0.11782052 -0.25938225 -0.91295356 0.31501865 0.0044157631
-0.062548853 0.024523439 -0.11340785 -0.32532701 -0.87389457 0.36120698 0.0068584871
-0.055490341 0.021604069 -0.11403411 -0.37653217 -0.83314568 0.40508249 0.011699568
-0.20154519 0.030228991 -0.11860383 0.15410852 -0.9682703 -0.19673111 0.0018687072
-0.19496135 0.030771295 -0.11687938 0.12823972 -0.97689122 -0.17099141 0.0018529731
-0.18661766 0.031724732 -0.1163496 0.1174896 -0.98140138 -0.15181407 0.0019516167
-0.17575441 0.032878254 -0.11564504 0.090550125 -0.9890191 -0.11679869 0.00089285808
-0.16533916 0.033607118 -0.1159967 0.062389653 -0.99548393 -0.0715492 0.0015995696
-0.15328372 0.034043714 -0.11510155 0.031640857 -0.99868542 -0.040327381 0.0014899577
-0.14521004 0.034331243 -0.11555236 0.0071097212 -0.99986517 -0.014802638 0.0012720064
-0.13669434 0.034222852 -0.11557598 -0.01528106 -0.99951226 0.027234908 0.0016324117
-0.12565504 0.033826701 -0.11568774 -0.040486645 -0.9978388 0.051755313 0.0012135927
-0.1153459 0.033369232 -0.11426295 -0.077230141 -0.99230963 0.096731372 0.0018128852
-0.10343504 0.032206222 -0.11501139 -0.10741033 -0.98460084 0.13792841 0.0020456668
-0.095373675 0.031124936 -0.11525846 -0.14468589 -0.97480989 0.16974026 0.0028338546
-0.089049868 0.031068925 -0.11020964 -0.14762694 -0.9727 0.17905556 0.0026737985
-0.18372746 -0.030808641 -0.10901735 0.14537172 0.97269225 -0.18093303 0.0019013797
-0.17419 -0.031771608 -0.10761391 0.11851351 0.98161244 -0.14963847 0.0015923772
-0.16496253 -0.03254598 -0.10519335 0.1012 0.98579365 -0.13405053 0.0018313505
-0.15384664 -0.033441816 -0.10461202 0.070299812 0.99304754 -0.09441711 0.0017165937
-0.14620149 -0.03388251 -0.10673158 0.044726312 0.99701357 -0.062955484 0.0014242628
-0.13455142 -0.034284785 -0.10543652 0.01738717 0.99938679 -0.030392557 0.0016197327
-0.12472882 -0.034299873 -0.10521096 -0.0075496472 0.99990731 0.011335444 0.001735618
-0.11524194 -0.0339473 -0.1050328 -0.053312495 0.99634272 0.066776149 0.0016634127
-0.10284214 -0.03336338 -0.10573419 -0.093283348 0.98991311 0.10663176 0.0015187677
-0.094672903 -0.032517016 -0.10526957 -0.10801148 0.98625785 0.12501575 0.0020607759
-0.08659441 -0.031656191 -0.10426948 -0.14782229 0.97652322 0.1566876 0.0024197132
-0.077182695 -0.030387798 -0.10439757 -0.16679588 0.96609265 0.19708924 0.0029078908
-0.22409719 -0.020534612 -0.10696676 0.35575137 0.79524487 -0.49094447 0.02004054
-0.21239546 -0.024041668 -0.10558642 0.29568186 0.86271429 -0.4102394 0.0092042508
-0.20647115 -0.025517253 -0.10576271 0.23558789 0.9181295 -0.31864804 0.0040045911
-0.19678564 -0.027997764 -0.10641122 0.21074644 0.93778372 -0.27594855 0.0040602521
-0.18773542 -0.029126413 -0.10319369 0.19535014 0.94891346 -0.24779338 0.0034209487
-0.073590301 -0.029458027 -0.10610056 -0.19138779 0.95690316 0.21841955 0.0030988476
-0.064782195 -0.027150128 -0.10660299 -0.25002199 0.92244208 0.29426107 0.0056004208
-0.055595398 -0.025273522 -0.10486058 -0.28323597 0.90591395 0.31479725 0.0052478546
-0.045343202 -0.022008538 -0.10443896 -0.37148753 0.82220817 0.43124318 0.014369329
-0.038767084 -0.020342616 -0.10220747 -0.42222428 0.76813918 0.48134068 0.02129288
-0.24332607 -0.012533552 -0.1089226 0.52623135 0.47530362 -0.70510077 0.052612357
-0.23489161 -0.015293102 -0.10578191 0.47564504 0.61861372 -0.62536305 0.032204598
-0.22565284 -0.01890702 -0.10511623 0.38934675 0.75584787 -0.52640569 0.023093287
-0.2177376 -0.01959984 -0.1002804 0.37971824 0.75387555 -0.53617698 0.025092453
-0.043295432 -0.018759087 -0.10939074 -0.46137488 0.71957773 0.51898086 0.031322051
-0.034628045 -0.015686451 -0.1064636 -0.5420025 0.60228902 0.58607268 0.039753202
-0.026273085 -0.013215801 -0.10232333 -0.55683708 0.47032386 0.68463707 0.03444165
-0.25099367 -0.0022556689 -0.10845958 0.58613712 0.086188324 -0.80561453 0.072442144
-0.2449607 -0.0061851083 -0.10544164 0.56218648 0.34407857 -0.75203472 0.053493407
-0.23846328 -0.0081321355 -0.10118242 0.58764392 0.28588226 -0.7569319 0.058143802
-0.02350229 -0.0060475226 -0.10566097 -0.60953897 0.30384278 0.73221707 0.04278956
-0.017316565 -0.0019867052 -0.10184114 -0.63406742 0.12394298 0.76328021 0.061905395
-0.25256044 0.0024975189 -0.10983491 0.56200647 -0.14174788 -0.81489646 0.078096271
-0.24514714 0.0051361234 -0.10521384 0.57694834 -0.26982594 -0.77092451 0.058669414
-0.2381742 0.0083656767 -0.10115599 0.56405133 -0.36251056 -0.74191117 0.044948887
-0.024618318 0.0057331785 -0.10678542 -0.65677458 -0.23051658 0.7179898 0.054790121
-0.017114135 0.0030118132 -0.10130271 -0.65670782 -0.16867107 0.73504078 0.060637247
-0.24277642 0.012489311 -0.10885742 0.53249323 -0.45925486 -0.71101052 0.046629503
-0.23322678 0.014789695 -0.10436185 0.48683742 -0.60761416 -0.6275304 0.035985637
-0.22454961 0.018196134 -0.10234089 0.44125515 -0.70531106 -0.55482447 0.030197622
-0.041740853 0.019336423 -0.10685501 -0.40589824 -0.78036219 0.47569045 0.018309847
-0.036045283 0.016917028 -0.10606694 -0.48110089 -0.7052961 0.52067202 0.020406244
-0.025717005 0.012003325 -0.10319676 -0.58508986 -0.43691194 0.68321145 0.04469277
-0.22372966 0.021788897 -0.10857378 0.30698496 -0.85207242 -0.42394918 0.0099445833
-0.21585114 0.023287272 -0.1060917 0.31268537 -0.85792398 -0.40766934 0.010573658
-0.20434128 0.026264733 -0.10573093 0.23311581 -0.92225707 -0.30838123 0.0034101675
-0.19591896 0.028170625 -0.1057752 0.21948564 -0.93073851 -0.29249254 0.0040049474
-0.18655325 0.029451031 -0.10315534 0.18866618 -0.9485448 -0.25429881 0.0032328111
-0.072649151 0.028843509 -0.10744639 -0.21095394 -0.94477403 0.25079948 0.0035171537
-0.066072375 0.02745837 -0.10663409 -0.25005478 -0.92244363 0.29422832 0.0041103689
-0.054240301 0.025304668 -0.10396478 -0.27727303 -0.90221548 0.33034369 0.0058017271
-0.046348274 0.022371825 -0.10455531 -0.36030161 -0.82567203 0.4341065 0.011137404
-0.18289201 0.030632511 -0.10667174 0.14209288 -0.97260988 -0.18395545 0.0021029031
-0.17501071 0.031628381 -0.10676385 0.11292707 -0.98319668 -0.14342821 0.0016393996
-0.1635617 0.032720249 -0.10492273 0.09503191 -0.98847276 -0.11785798 0.0020814438
-0.15552129 0.033358768 -0.10454453 0.075332738 -0.99262708 -0.094954967 0.0015850287
-0.14422822 0.033832736 -0.10380782 0.049283061 -0.99711263 -0.057771936 0.0012860876
-0.1335092 0.034287192 -0.10478666 0.013470816 -0.99971682 -0.01961726 0.0015408405
-0.12696019 0.034357477 -0.1033316 -0.0043820888 -0.99998784 0.0022750518 0.0010363869
-0.11522665 0.03404931 -0.10289279 -0.031954717 -0.99901217 0.030880721 0.0012079939
-0.1049371 0.033455089 -0.10552908 -0.072896279 -0.99400944 0.081434079 0.0016811537
-0.092033461 0.032546859 -0.10316958 -0.10622502 -0.98722053 0.11879347 0.0011917418
-0.083546586 0.030948367 -0.10624367 -0.16025749 -0.96770781 0.19457436 0.0023754402
-0.078358211 0.030321291 -0.10584495 -0.16972004 -0.9618119 0.21473925 0.0031631733
-0.17545438 -0.030187272 -0.098436326 0.17365557 0.96198744 -0.2107698 0.0025031874
-0.16672347 -0.030743621 -0.095290922 0.15917097 0.96583778 -0.20450455 0.0022314042
-0.15411167 -0.031914618 -0.092687987 0.11687306 0.98054832 -0.15768868 0.0016406408
-0.1469745 -0.03278552 -0.093327977 0.095632762 0.98925102 -0.11062001 0.0014749081
-0.134808 -0.033639006 -0.092733219 0.068300009 0.99459392 -0.078218848 0.0017370675
-0.12512031 -0.034078006 -0.093686104 0.039572492 0.99757653 -0.057228517 0.0013026762
-0.11631371 -0.034367528 -0.094024852 0.003832631 0.99998409 -0.0041226451 0.0015606086
-0.10443952 -0.033947568 -0.096003085 -0.046433706 0.99747378 0.053759247 0.0018331141
-0.095636643 -0.033525363 -0.096358784 -0.067106664 0.99376416 0.089047834 0.0016867096
-0.083541565 -0.032765005 -0.094273634 -0.096099131 0.98979163 0.10524976 0.0013701624
-0.074518152 -0.031371489 -0.095697768 -0.14913279 0.97470188 0.16648011 0.0020811278
-0.065003432 -0.030357879 -0.09407936 -0.19340734 0.95956361 0.20452695 0.0038472952
-0.0596391 -0.030221175 -0.090338394 -0.17259972 0.96317589 0.20615903 0.003103974
-0.2036963 -0.02198955 -0.09426865 0.31824863 0.84488684 -0.42998147 0.010629992
-0.19440573 -0.0243087 -0.093049802 0.28360447 0.87697709 -0.38791719 0.0075698709
-0.1843662 -0.02792185 -0.096540794 0.22829495 0.93242413 -0.28011888 0.0045402735
-0.17611644 -0.028691735 -0.092831515 0.20349419 0.94391698 -0.26002055 0.0034021498
-0.16951042 -0.029913545 -0.091876432 0.18096809 0.95717698 -0.2259707 0.0034022923
-0.061405122 -0.028629787 -0.098491378 -0.21387634 0.94503063 0.24733372 0.0037375567
-0.054953743 -0.028281007 -0.094137758 -0.23367749 0.93693691 0.25989208 0.0046626157
-0.044431757 -0.025338754 -0.095338106 -0.28076208 0.90672451 0.31467986 0.0031984211
-0.036661111 -0.02287014 -0.09508092 -0.36477304 0.84361488 0.39402369 0.013533712
-0.028117239 -0.020431126 -0.092831738 -0.40999338 0.77659678 0.47833332 0.019870611
-0.22442041 -0.013168502 -0.095513485 0.49943447 0.54527235 -0.67323351 0.043683086
-0.21531682 -0.017830338 -0.095090568 0.45742932 0.67395079 -0.58012813 0.023823507
-0.20913781 -0.01968771 -0.093895197 0.38489908 0.75033098 -0.53745335 0.023004593
-0.023466183 -0.017163072 -0.09478347 -0.48353192 0.68447626 0.54560894 0.024090491
-0.016908478 -0.01347125 -0.093954869 -0.5813241 0.4900068 0.64958113 0.033878781
-0.23384303 -0.0058853813 -0.096989661 0.5680604 0.26539862 -0.77901918 0.059471749
-0.22703357 -0.0054063424 -0.091674805 0.57983816 0.24217241 -0.77790755 0.046490148
-0.014110772 -0.0037617795 -0.098418906 -0.62439132 0.15207568 0.76616484 0.068119653
-0.0073579918 -0.0050095478 -0.09217266 -0.63884628 0.17152412 0.74996996 0.060221106
-0.23508976 0.0037633439 -0.097192913 0.53860897 -0.1385686 -0.831083 0.067346193
-0.22708386 0.0046430253 -0.091541104 0.63662165 -0.15743333 -0.75493556 0.073177435
-0.012150175 0.0061352514 -0.095802799 -0.64300776 -0.29512772 0.70671111 0.053819928
-0.0085215252 0.0043650465 -0.093401521 -0.6369015 -0.23243612 0.7350713 0.054789931
-0.2246168 0.014495058 -0.097517341 0.48443711 -0.61234528 -0.6247831 0.036321912
-0.21755397 0.016456211 -0.094545156 0.44558054 -0.69146615 -0.5686233 0.025809411
-0.20896813 0.018761495 -0.091444597 0.41210943 -0.7463516 -0.52261394 0.023233453
-0.024868282 0.017246313 -0.095984094 -0.49021 -0.67462611 0.55188203 0.019628597
-0.015061299 0.011980198 -0.094024792 -0.60012203 -0.46242046 0.65270275 0.041810095
-0.20489435 0.0225942 -0.095924318 0.31942555 -0.84603167 -0.42684621 0.01117893
-0.19596167 0.024763051 -0.094651811 0.30354172 -0.87010115 -0.38831219 0.0077243745
-0.18512282 0.028277989 -0.097794369 0.20252652 -0.94117123 -0.27051753 0.0037933618
-0.17689042 0.028849961 -0.093540937 0.20050593 -0.94291782 -0.26590109 0.0029308554
-0.16988575 0.029843658 -0.091766827 0.16753531 -0.95777649 -0.23365819 0.0031643056
-0.067308731 0.029828295 -0.099378064 -0.19551082 -0.95440835 0.2255666 0.0029156844
-0.05516579 0.027923957 -0.095584616 -0.24282531 -0.9322719 0.26815122 0.0052445042
-0.045475442 0.025532899 -0.095617577 -0.29319772 -0.89072752 0.34733218 0.0043781884
-0.035978779 0.023520248 -0.093121588 -0.34859225 -0.84493023 0.40568027 0.011282997
-0.027786946 0.021449097 -0.090441637 -0.39436966 -0.79592144 0.45932737 0.015978256
-0.17115679 0.030410416 -0.096204594 0.15685935 -0.96345848 -0.21712406 0.0028037115
-0.16303058 0.031468142 -0.096491814 0.12371764 -0.97909647 -0.1614434 0.0018627555
-0.15569936 0.032077096 -0.094610222 0.10668572 -0.9834044 -0.14674437 0.0018779468
-0.14518659 0.033365443 -0.095976345 0.076328047 -0.99312192 -0.088785864 0.0013583568
-0.13451001 0.033721708 -0.093961701 0.05876584 -0.9956755 -0.07194937 0.0017591929
-0.12622845 0.034171332 -0.09629707 0.024784874 -0.99916703 -0.032419346 0.0017798262
-0.11567801 0.034387298 -0.094651386 -0.0075109908 -0.99997038 0.0016886882 0.0014349588
-0.10356291 0.03403623 -0.093431339 -0.042512923 -0.99767947 0.053181812 0.0015686041
-0.095661528 0.033614609 -0.095241308 -0.071806431 -0.99523085 0.066025555 0.0014094228
-0.086647391 0.033051383 -0.094389491 -0.091006234 -0.99017727 0.1061453 0.001466302
-0.075132445 0.031679809 -0.094222039 -0.13366723 -0.97942585 0.15118897 0.0026680874
-0.066259541 0.030495999 -0.094264984 -0.17609651 -0.96449649 0.19681592 0.0026219054
-0.15366131 -0.030867141 -0.08577165 0.14940925 0.96909142 -0.19631264 0.0032795779
-0.14594325 -0.031636018 -0.084506094 0.12542255 0.97990364 -0.15510626 0.0024534957
-0.13848881 -0.033293948 -0.08909595 0.092571616 0.99065 -0.10021541 0.001744359
-0.12459669 -0.033622041 -0.084209949 0.078326263 0.9934622 -0.083052844 0.0014238567
-0.11510236 -0.03405888 -0.085050203 0.035563432 0.99842644 -0.043358997 0.0017700607
-0.10443059 -0.034371689 -0.085099429 -0.0010805412 0.99999893 0.00099644368 0.0014910824
-0.09432254 -0.034038104 -0.085417069 -0.051016685 0.99708366 0.056757428 0.0013106827
-0.084606744 -0.033617441 -0.085641429 -0.066457152 0.99488515 0.076072283 0.0019092046
-0.075174183 -0.033024982 -0.084522121 -0.095399484 0.99015683 0.1024131 0.0020315018
-0.063324288 -0.031519227 -0.085074291 -0.14659411 0.97520512 0.16578631 0.002651016
-0.056736123 -0.030685475 -0.084811904 -0.16125415 0.96944857 0.18484212 0.0025600884
-0.18475369 -0.024520205 -0.08581996 0.30471748 0.87606466 -0.3737084 0.0090451259
-0.17383677 -0.026901264 -0.084961936 0.22671436 0.92846072 -0.29421315 0.0041817972
-0.16611226 -0.02799895 -0.082666874 0.22233558 0.92841101 -0.29769099 0.004506743
-0.15923654 -0.029235812 -0.081496246 0.19464809 0.94736618 -0.25418395 0.0037339309
-0.052048218 -0.028927397 -0.089369506 -0.21662866 0.94327754 0.25159392 0.0035337119
-0.0457271 -0.028634695 -0.084896088 -0.21449776 0.94100177 0.26173717 0.0035367764
-0.034020055 -0.026093785 -0.08375971 -0.25919178 0.91713881 0.30278063 0.0038688472
-0.025575619 -0.023168901 -0.08492922 -0.35077482 0.84357506 0.40661782 0.012092197
-0.21428885 -0.013537362 -0.08832363 0.48377079 0.57671964 -0.65830106 0.040563103
-0.20577344 -0.015215469 -0.084205709 0.46238342 0.62715924 -0.62679577 0.036542762
-0.19464087 -0.018734226 -0.080906816 0.40916461 0.73231143 -0.54433841 0.031606298
-0.014378826 -0.018782843 -0.084299415 -0.41805077 0.72142839 0.55206406 0.025199749
-0.0068304227 -0.014581951 -0.083787002 -0.50143957 0.58075607 0.64131171 0.035341892
0.0002091662 -0.010560523 -0.082428403 -0.58958882 0.42249233 0.68839329 0.037772633
-0.22269952 -0.0050337715 -0.088384531 0.59038734 0.18729982 -0.78508699 0.056662593
-0.21628344 -0.0064569348 -0.084051028 0.58123964 0.27700797 -0.76513207 0.055087041
-0.0041564028 -0.0075517981 -0.088243246 -0.6443581 0.2934306 0.70618773 0.050414506
0.0036670191 -0.0041105584 -0.08296755 -0.65681064 0.19874953 0.72739142 0.052559759
-0.22387789 0.0046794163 -0.089154646 0.59963143 -0.10404619 -0.79348379 0.06102803
-0.2166734 0.0037362571 -0.083434284 0.60860366 -0.14665796 -0.77980322 0.061927337
-0.20916256 0.0095917899 -0.080370151 0.55417842 -0.37202927 -0.74463451 0.046651185
-0.0023870654 0.0059049134 -0.087538533 -0.63387769 -0.26046652 0.72825569 0.049309328
0.0028596588 0.0058819633 -0.082940504 -0.64325356 -0.26146969 0.7196238 0.049278129
-0.21443012 0.013580018 -0.088708676 0.52638072 -0.54071242 -0.65616566 0.043121811
-0.20499897 0.015473409 -0.083964542 0.48813957 -0.6105746 -0.62363321 0.038799137
-0.19606715 0.018697783 -0.081596486 0.4379054 -0.70801193 -0.55403793 0.03039792
-0.020875033 0.019125866 -0.089279503 -0.44465905 -0.74660313 0.49483535 0.018806351
-0.013726897 0.018120162 -0.084852554 -0.43253171 -0.72192723 0.54012722 0.026613956
-0.0060555786 0.012099248 -0.086118393 -0.58322328 -0.49094036 0.64716935 0.040635929
-0.19450054 0.021134073 -0.085207283 0.35343289 -0.81572372 -0.45790824 0.012722573
-0.18459544 0.024539061 -0.085606299 0.28582603 -0.88119322 -0.37656599 0.0085096844
-0.17547758 0.027111579 -0.086546682 0.23248298 -0.92209452 -0.30934334 0.0054946952
-0.16550949 0.028343286 -0.083123215 0.20201951 -0.93824863 -0.28085172 0.0027325274
-0.0532289 0.029594503 -0.087930024 -0.202438 -0.95135397 0.23225944 0.0030468393
-0.046254057 0.028604947 -0.085500568 -0.20875765 -0.94586378 0.24851948 0.003450712
-0.035753142 0.026360987 -0.084317259 -0.25917891 -0.91756046 0.30151123 0.0043159318
-0.024275202 0.022369517 -0.085403889 -0.36879435 -0.83104968 0.41634998 0.010337135
-0.017984621 0.021731362 -0.081396803 -0.34596923 -0.8418802 0.41417745 0.010798282
-0.15497607 0.030628879 -0.085035719 0.14923784 -0.96890259 -0.19737236 0.002557856
-0.14440158 0.032078903 -0.085867435 0.10866832 -0.98387891 -0.14203346 0.001422875
-0.13446894 0.033194326 -0.08587911 0.086243063 -0.99084616 -0.1038558 0.0015180253
-0.12340799 0.033587124 -0.08252091 0.06406007 -0.99429458 -0.085290655 0.0016973176
-0.11535087 0.034000535 -0.084075615 0.050211348 -0.9966346 -0.064793788 0.0014880942
-0.10409758 0.034321986 -0.084648475 -0.00029167259 -0.99998909 -0.0046654157 0.0018001492
-0.095425032 0.034047298 -0.086180381 -0.024378136 -0.99872261 0.044259351 0.001553848
-0.08490362 0.033776525 -0.082641028 -0.053438529 -0.99658263 0.062987424 0.0016847766
-0.075384073 0.033168241 -0.084301859 -0.097475149 -0.98948604 0.10684593 0.001666474
-0.062890351 0.031434216 -0.085252762 -0.14200354 -0.97684675 0.16001664 0.0024271063
-0.055676095 0.03031097 -0.086333379 -0.18139306 -0.95939898 0.21598637 0.0024165763
