# .PCD v0.7 - Point Cloud Data file format
VERSION 0.7
FIELDS x y z normal_x normal_y normal_z curvature
SIZE 4 4 4 4 4 4 4
TYPE F F F F F F F
COUNT 1 1 1 1 1 1 1
WIDTH 584
HEIGHT 1
VIEWPOINT 0 0 0 1 0 0 0
POINTS 584
DATA ascii
-0.17438897 0.044139281 0.45450455 0.17764738 -0.98407185 -0.0066328458 0.12557526
-0.16606466 0.044139281 0.45419025 0.14231658 -0.98961896 0.020008024 0.11885113
-0.15392911 0.044139281 0.45408374 0.12605077 -0.99190277 -0.015491277 0.095365331
-0.14305818 0.044139288 0.45493793 0.10921867 -0.99399799 -0.0062658689 0.069797635
-0.13479675 0.044139285 0.45539016 0.069468267 -0.99738455 -0.019957183 0.06043601
-0.12530072 0.044139281 0.45609534 0.022998745 -0.99973524 -0.00074371294 0.024861101
-0.11549596 0.044139281 0.45471647 0.027458418 -0.99962288 0.00045514439 0.017567076
-0.10489664 0.044139285 0.45548284 0.0039021613 -0.99997628 0.0056793494 0.00034290968
-0.095564641 0.044139281 0.45530638 5.0172483e-05 -0.99999243 -0.0038947519 2.785759e-05
-0.085028112 0.044139281 0.45463681 -3.8739722e-06 -1 2.8245769e-05 8.6781256e-07
-0.074552216 0.044139285 0.45448998 -4.3585865e-06 -1 1.7704879e-05 1.9439217e-06
-0.064577021 0.044139281 0.45483139 -3.5401529e-06 -1 8.7431026e-06 1.012421e-06
-0.054213289 0.044139285 0.45457733 -1.5585783e-06 -1 2.3971726e-05 1.0722441e-06
-0.045977239 0.044139281 0.45487249 -4.256955e-06 -1 8.4830126e-06 1.3751377e-06
-0.034989741 0.044139281 0.45472911 -1.9737665e-06 -1 2.6086818e-05 1.6716278e-06
-0.026070952 0.044139281 0.45524451 -2.3125381e-06 -1 9.1479596e-06 1.1066118e-06
-0.015068806 0.044139281 0.45432869 -1.3973616e-07 -1 2.4786515e-05 1.9808454e-06
-0.0046275333 0.044139281 0.45431077 3.131243e-07 -1 4.2998112e-05 1.611212e-06
0.0043104053 0.044139285 0.45564827 8.557891e-07 -1 3.4628491e-05 1.1654403e-06
0.01543489 0.044139281 0.45444408 3.1754871e-07 -1 8.6593964e-06 1.9429579e-06
0.024495702 0.044139281 0.4545832 9.4718587e-07 -1 1.9686662e-05 2.5000663e-06
0.034152981 0.044139281 0.45552182 1.8677109e-06 -1 2.3736193e-05 1.5694192e-06
0.044665948 0.044139285 0.45534053 1.8981215e-06 -1 1.7438557e-05 1.604041e-06
0.055579953 0.044139285 0.45449188 1.8321348e-06 -1 2.6069678e-05 2.9238552e-06
0.06551268 0.044139281 0.45435244 6.7260335e-06 -1 4.3651409e-05 1.3587165e-06
0.074860908 0.044139285 0.45518067 3.6899078e-06 -1 2.7678269e-08 1.0784941e-06
0.084934764 0.044139288 0.45483831 5.7003126e-06 -1 3.0846055e-05 1.4049375e-06
0.095152527 0.044139281 0.45600715 5.8707786e-07 -1 3.2921507e-05 1.5200844e-06
0.10511688 0.044139281 0.45470691 1.1809097e-06 -1 1.8057262e-05 0
0.11315696 0.044139292 0.4558754 1.3776903e-06 -1 8.4426738e-06 2.4806803e-07
0.12370674 0.044139281 0.45590064 3.9513666e-06 -1 1.7342958e-05 1.01966e-06
0.13425404 0.044139285 0.45456013 4.3486989e-06 -1 7.5182743e-06 0
0.14467454 0.044139288 0.45594102 1.1122156e-05 -1 3.1390835e-05 1.0217088e-06
0.15550034 0.044139285 0.45462731 1.2932988e-05 -1 1.6367328e-05 8.6774219e-07
0.16531889 0.044139288 0.4550539 1.4717992e-05 -1 2.3082397e-05 1.0120328e-06
0.17433549 0.044139281 0.45476282 1.3910897e-05 -1 1.7053813e-05 1.7904561e-06
0.18477328 0.044139281 0.45416981 8.4239045e-06 -1 8.6132022e-06 1.0849722e-06
0.19479297 0.044139292 0.45432952 -0.042547349 -0.99909317 -0.0016348216 0.0059233126
0.20499966 0.044139288 0.45634943 -0.26753077 -0.96351409 0.0082438998 0.051940177
0.21572766 0.044139285 0.45495695 -0.58996266 -0.80742782 -0.0021076973 0.085652716
0.22120208 0.041925833 0.45573387 -0.77804846 -0.62430525 0.069881909 0.094530039
-0.21510141 -0.041927382 0.46055517 0.28518426 0.25937939 -0.92270923 0.17907745
-0.20358658 -0.042908292 0.46271202 0.2246777 0.54840058 -0.80546683 0.15527278
-0.19513813 -0.042853951 0.46487147 0.20067079 0.63615781 -0.74500632 0.129271
-0.1843095 -0.042626023 0.46566233 0.21367224 0.89496189 -0.39164707 0.15469524
-0.17593706 -0.043100365 0.46652427 0.098135851 0.84222221 -0.53012353 0.14076327
-0.16635998 -0.044139288 0.46611664 0.14667886 0.8948763 -0.42152312 0.12089456
-0.15428756 -0.044139292 0.46391198 0.079434015 0.94781369 -0.30877069 0.076731138
-0.14458525 -0.044139288 0.46378422 0.083241768 0.94483155 -0.31680307 0.057378814
-0.13548543 -0.044139292 0.46375221 0.086492509 0.94018203 -0.32950991 0.065172881
-0.12413898 -0.044139288 0.4644919 0.084342584 0.94671988 -0.31081793 0.058113635
-0.11400245 -0.044139288 0.46517938 0.07498429 0.95280737 -0.29416901 0.060909271
-0.10390301 -0.044139292 0.46273896 0.048088383 0.98472393 -0.16735116 0.036321215
-0.095783725 -0.044139288 0.46507627 0.039820798 0.98374391 -0.17510635 0.034643952
-0.084379859 -0.044139292 0.46297845 0.019262785 0.99604893 -0.086691961 0.010496114
-0.074588664 -0.044139292 0.46659273 0.021898832 0.99376774 -0.10929828 0.012981464
-0.065694369 -0.044139292 0.46636429 0.020630524 0.99751174 -0.067414321 0.0078120665
-0.054839045 -0.044139292 0.46540254 0.001382214 0.99998504 -0.0052983318 9.9993704e-05
-0.044923097 -0.044139292 0.46671829 -0.00022608489 0.99999571 -0.0029287555 2.3596973e-05
-0.035409596 -0.044139285 0.46534956 -2.9921544e-06 1 -7.664692e-06 3.5607688e-06
-0.024999985 -0.044139292 0.46543667 -2.509455e-06 1 2.6673828e-05 3.6118893e-06
-0.015157323 -0.044139292 0.46361759 1.3719837e-06 1 1.7144013e-05 2.529556e-06
-0.0066605918 -0.044139288 0.46565419 -3.1798763e-07 1 9.4614388e-06 2.8943218e-06
0.0037460285 -0.044139288 0.46489877 1.598559e-07 1 2.3161794e-05 3.5042092e-06
0.015926085 -0.044139292 0.46398154 -1.3586396e-06 1 2.5623916e-05 3.0316717e-06
0.024057224 -0.044139292 0.46455249 1.993458e-06 1 2.0937559e-05 3.0324684e-06
0.034887206 -0.044139292 0.46571136 2.0796617e-06 1 2.660401e-05 3.1370612e-06
0.045022011 -0.044139292 0.46457779 1.526404e-06 1 1.8950743e-05 2.9872197e-06
0.055911977 -0.044139292 0.46432686 -2.5178651e-06 1 2.7528366e-05 3.0522865e-06
0.065105915 -0.044139292 0.46476331 1.3548607e-06 1 2.5524325e-05 3.1753029e-06
0.075364523 -0.044139288 0.46549478 6.0444436e-06 1 8.3837976e-06 3.1303791e-06
0.084017932 -0.044139288 0.46358341 4.5705324e-06 1 1.7978802e-05 3.0265535e-06
0.09597455 -0.044139288 0.46487433 8.1215194e-06 1 3.827424e-05 3.3067097e-06
0.10622278 -0.044139292 0.46534127 7.3212027e-06 1 3.879115e-05 3.4952961e-06
0.1142063 -0.044139285 0.46495539 5.6883528e-06 1 2.3970488e-05 2.7640347e-06
0.12468655 -0.044139292 0.46282139 7.4116874e-06 1 2.5075271e-05 3.1437198e-06
0.13503793 -0.044139292 0.46397004 4.4296808e-06 1 1.0587019e-05 3.0288654e-06
0.1467976 -0.044139292 0.46309641 1.5341187e-05 1 2.2370476e-05 3.3012375e-06
0.15539043 -0.044139292 0.46475875 2.4721e-06 1 1.7654322e-05 3.2367946e-06
0.16383745 -0.044139292 0.46460325 1.0650437e-05 1 1.6891434e-05 3.2219223e-06
0.17571487 -0.044139292 0.46466127 1.1797736e-07 1 2.6498823e-05 3.6632641e-06
0.1850878 -0.044139288 0.46521226 1.0059673e-05 1 2.5360088e-05 3.523669e-06
0.19496542 -0.044139292 0.46531498 -0.068212442 0.99753016 0.016749375 0.010997065
0.20271386 -0.044139292 0.46350512 -0.22289595 0.97483808 -0.002840183 0.048199933
0.21610574 -0.044139292 0.46396443 -0.48161408 0.87568557 -0.03496711 0.067731693
0.22143209 -0.042221766 0.46514389 -0.73304951 0.68016607 0.0035489229 0.10287105
-0.21390569 -0.035836779 0.46088034 0.27275532 0.1554309 -0.94944501 0.17326219
-0.20582996 -0.034501113 0.46266931 0.32000151 0.1918755 -0.92778379 0.13215685
-0.19449884 -0.035661157 0.46517947 0.21192928 0.5501368 -0.80773479 0.15105945
-0.18476915 -0.035430871 0.46733481 0.31822661 0.52775317 -0.7875331 0.1521662
-0.17578106 -0.034250606 0.46932596 0.24405617 0.4738023 -0.84613705 0.1336441
0.22143207 -0.032700293 0.46565962 -0.94179773 0.33538389 0.023123689 0.072178595
-0.2133774 -0.026403615 0.4609974 0.21366757 0.068787977 -0.97448158 0.15672861
-0.20565309 -0.024057522 0.46270853 0.24387096 0.050580218 -0.9684878 0.1499096
-0.19424324 -0.02526539 0.4652361 0.29312533 0.091910899 -0.95164591 0.16853556
-0.18547931 -0.024700008 0.46717751 0.49418077 0.14807446 -0.8566559 0.18742378
-0.17563607 -0.025166912 0.46935806 0.33717778 0.15935344 -0.9278565 0.095501468
0.22143209 -0.024881613 0.46470079 -0.98262697 0.18372422 0.026258035 0.034875859
-0.21300083 -0.014069875 0.46108082 0.30809146 0.010032732 -0.95130384 0.12696674
-0.20571598 -0.014694628 0.46269459 0.27553859 -0.03184668 -0.96076232 0.14443247
-0.19530413 -0.014482058 0.46500108 0.32854864 -0.022341108 -0.94422281 0.1679648
-0.18629503 -0.014597383 0.46699682 0.47248206 -0.066223323 -0.87884879 0.19399454
-0.17756219 -0.014701109 0.46893135 0.36031744 -0.016854228 -0.93267751 0.095534399
0.22143209 -0.012884784 0.46557981 -1 -3.457317e-06 -0.00016752999 0
-0.21346496 -0.0045395182 0.460978 0.2958532 0.050480153 -0.95389873 0.14216349
-0.20542157 -0.0061746975 0.46275979 0.28662598 -0.040502347 -0.9571861 0.15060161
-0.19620185 -0.0043337881 0.46480224 0.30193454 -0.08640331 -0.94940507 0.16139482
-0.18516462 -0.0055436455 0.46724716 0.4680849 -0.039669983 -0.88279259 0.2114345
-0.1770162 -0.0052367966 0.46905231 0.3335062 0.0053423475 -0.94273281 0.12292605
0.22143209 -0.0040895785 0.46512187 -1 -1.1686654e-05 -0.00017299052 0
-0.21383704 0.0048168898 0.46089554 0.21582083 0.013017921 -0.97634619 0.15006022
-0.20398419 0.0036825568 0.4630782 0.27163553 0.042121567 -0.96147794 0.15475254
-0.19485268 0.0058164489 0.46510106 0.3029862 0.076537013 -0.94991654 0.17022152
-0.18487673 0.0055556134 0.46731099 0.48296466 0.035942897 -0.87490189 0.18010971
-0.17610553 0.004202669 0.46925408 0.33320272 0.0033456783 -0.94284928 0.079559341
0.22143209 0.0062902849 0.4630661 -1 -1.5957154e-05 -0.00018139803 0
-0.21338706 0.014908328 0.46099529 0.29755661 0.018684279 -0.9545213 0.12788969
-0.20516737 0.014212863 0.46281612 0.26583993 -0.0057593989 -0.96399999 0.14144024
-0.1943613 0.014461735 0.4652099 0.33490053 0.026227742 -0.94188839 0.17938009
-0.18501835 0.015457243 0.46727961 0.51239312 0.15303633 -0.8450048 0.16374953
-0.17660283 0.015120867 0.46914393 0.38108987 -0.0074466206 -0.92450798 0.12314866
0.22143209 0.014004953 0.46366081 -0.99999785 -0.002045823 0.00041341575 5.7227326e-06
-0.21288934 0.024880111 0.46110553 0.29272258 -0.095507875 -0.95141572 0.1403634
-0.20526764 0.025281504 0.46279389 0.28282419 -0.10142484 -0.95379424 0.13543171
-0.19444752 0.025213832 0.46519083 0.29024389 -0.20022197 -0.93577224 0.15320711
-0.18677124 0.022896338 0.46689135 0.45863736 -0.14702095 -0.87637705 0.15693797
-0.1764449 0.026688213 0.46917889 0.28295615 -0.18725377 -0.94067627 0.092474595
0.22143209 0.025852079 0.46413055 -0.9849779 -0.17258246 -0.0058081103 0.036373384
-0.21398203 0.034685895 0.46086344 0.29959258 -0.20784791 -0.93115175 0.1541281
-0.20414615 0.034981992 0.46304235 0.24079792 -0.26128021 -0.93474543 0.16713019
-0.19573228 0.034619506 0.46490619 0.29951146 -0.27387235 -0.91394031 0.13990264
-0.18508445 0.034212653 0.46726498 0.226593 -0.58281678 -0.78037184 0.16791141
-0.17681336 0.033403885 0.46909726 0.36621508 -0.46916869 -0.80359638 0.15257807
0.22143209 0.035006739 0.46499607 -0.89882618 -0.43829772 0.0025750848 0.090550549
-0.21201839 0.040836643 0.46129847 0.28733236 -0.28957182 -0.9130106 0.16446561
-0.20458329 0.04319834 0.46248898 0.14628942 -0.56185621 -0.81419712 0.17391512
-0.19447993 0.042854238 0.46413419 0.15907131 -0.77784342 -0.60799342 0.1231432
-0.18573809 0.043527868 0.46423224 0.081636138 -0.94991803 -0.30164728 0.13718088
-0.17458896 0.04361571 0.46749681 0.26103798 -0.82075715 -0.50815046 0.11663254
-0.16478321 0.044139288 0.46549955 0.10378676 -0.92182565 -0.3734512 0.11983091
-0.15446274 0.044139281 0.46480978 0.083341725 -0.92232603 -0.37731794 0.0749311
-0.14496636 0.044139281 0.46522751 0.043082036 -0.91468513 -0.40186423 0.061866149
-0.13390394 0.044139285 0.46487325 0.10846049 -0.9380753 -0.32901537 0.06410107
-0.12381466 0.044139288 0.46508905 0.093837231 -0.94909978 -0.30067265 0.054939914
-0.11529455 0.044139277 0.46482125 0.083429322 -0.9647637 -0.24954064 0.05234912
-0.10580745 0.044139288 0.4641386 0.041391 -0.98301828 -0.17877914 0.041861154
-0.094857 0.044139281 0.46505141 0.046387237 -0.98128378 -0.18689658 0.040805984
-0.084805802 0.044139285 0.46512839 0.035663202 -0.99417746 -0.10168229 0.013808326
-0.074734561 0.044139281 0.46474409 0.024888847 -0.99600369 -0.085774481 0.012859332
-0.06437251 0.044139285 0.46307895 -7.6973329e-06 -1 1.6570848e-05 1.8694986e-06
-0.055012669 0.044139288 0.46524557 0.00085142214 -0.99996984 -0.0077249948 0.00010883062
-0.044391684 0.044139285 0.46663588 0.0024449131 -0.99994457 -0.010239878 0.0001476941
-0.035740267 0.044139288 0.46484235 -1.7494934e-06 -1 2.6550961e-05 1.3768139e-06
-0.026233368 0.044139285 0.46555442 -4.1498652e-06 -1 2.73322e-05 1.4326296e-06
-0.014245525 0.044139285 0.46436465 -6.2024372e-07 -1 2.3114018e-05 1.0861415e-06
-0.0045186421 0.044139285 0.46496651 -1.6870847e-07 -1 1.8618159e-05 8.4410163e-07
0.0037958534 0.044139292 0.46596006 3.7646865e-07 -1 1.6555992e-05 1.3781595e-06
0.01434588 0.044139292 0.46565664 4.1533633e-07 -1 2.5690808e-05 1.3814678e-06
0.0265602 0.044139281 0.46415043 8.7980374e-07 -1 9.0983885e-06 2.0345371e-06
0.034498468 0.044139292 0.46310514 3.1923951e-06 -1 2.1484972e-05 8.0240511e-07
0.045047097 0.044139288 0.46366626 1.9919235e-06 -1 2.4949204e-05 1.9856093e-06
0.053178847 0.044139292 0.46485493 3.280227e-06 -1 8.0530835e-06 1.5371683e-06
0.06460996 0.044139277 0.46529707 2.5693653e-06 -1 -7.5523099e-06 0
0.075593427 0.044139281 0.46589771 6.1855312e-06 -1 2.2895627e-05 1.6371392e-06
0.084263124 0.044139285 0.46537185 3.8441049e-06 -1 3.4869288e-05 2.2133086e-06
0.095747881 0.044139285 0.46517915 2.7483552e-06 -1 1.8119066e-05 1.0677711e-06
0.10556448 0.044139281 0.4639686 7.1426712e-06 -1 8.2611368e-06 1.4756341e-06
0.11356342 0.044139285 0.46608496 6.6110051e-06 -1 2.7891601e-05 1.603754e-06
0.12351944 0.044139285 0.46520677 3.126371e-06 -1 2.823079e-05 1.8262184e-06
0.13688195 0.044139292 0.46564606 7.3356769e-06 -1 2.3589289e-05 1.0158997e-06
0.14516239 0.044139285 0.46518171 2.273985e-06 -1 1.7217842e-05 0
0.15448706 0.044139281 0.46544501 1.1168391e-05 -1 3.4181838e-05 1.0823366e-06
0.1650926 0.044139285 0.46600276 9.7321699e-06 -1 1.0296737e-05 2.168844e-06
0.17470919 0.044139281 0.46603394 4.2692054e-06 -1 8.5529973e-06 1.5862314e-06
0.18544371 0.044139281 0.46510038 9.1015108e-06 -1 3.4856766e-05 1.0605179e-06
0.19491628 0.044139281 0.46481791 -0.03820806 -0.99926442 0.0032910013 0.0049740826
0.20494516 0.044139285 0.46530128 -0.26593101 -0.96385366 0.016334334 0.056512162
0.21409537 0.044139285 0.4644599 -0.43024537 -0.90266979 -0.0087271631 0.075911202
0.22110863 0.042966444 0.46374294 -0.73785007 -0.67486298 0.011714899 0.10141741
-0.17111114 -0.041622542 0.47036046 0.16681153 0.62981182 -0.75862449 0.097649232
-0.16401353 -0.042244811 0.47175992 0.16503522 0.60516953 -0.77880245 0.094776236
-0.15608384 -0.042263478 0.47340754 0.17436297 0.61634541 -0.76792973 0.091339797
-0.14391628 -0.042939294 0.4751046 0.12693113 0.76416135 -0.63241279 0.083569974
-0.13487042 -0.042753085 0.47665465 0.20891704 0.56149262 -0.8006745 0.093543395
-0.12498425 -0.044139288 0.47459528 0.14590217 0.8044042 -0.57588762 0.093465917
-0.11534071 -0.044139292 0.47507501 0.095360793 0.91781026 -0.38539672 0.074478172
-0.10448867 -0.044139288 0.47265586 0.089982502 0.95611805 -0.2788212 0.052661981
-0.094841532 -0.044139292 0.47466469 0.059592571 0.93825561 -0.34077141 0.064201005
-0.083924867 -0.044139292 0.47363821 0.064805046 0.95966005 -0.27359274 0.054973066
-0.07532347 -0.044139292 0.47314042 0.069294877 0.947056 -0.31350151 0.063438222
-0.064440943 -0.044139292 0.47561258 0.1197276 0.96347988 -0.23952404 0.045718029
-0.056202162 -0.044139292 0.47501525 0.033976965 0.97905821 -0.20072499 0.041407395
-0.043935277 -0.044139292 0.47545788 0.02572 0.98745859 -0.15576915 0.023556195
-0.035970595 -0.044139292 0.47633454 0.01943006 0.98702085 -0.15941271 0.026098484
-0.025165565 -0.044139292 0.47615096 0.0078287954 0.99334967 -0.11487034 0.015174299
-0.013761363 -0.044139292 0.47371539 0.0044454127 0.99722534 -0.074309051 0.010166135
-0.0048824875 -0.044139292 0.47489575 0.01281717 0.99611741 -0.087097391 0.013565147
0.0044381074 -0.044139292 0.47649559 0.0028471383 0.99618286 -0.087244578 0.01157717
0.013941459 -0.044139292 0.47619826 0.0011932853 0.99611866 -0.088012829 0.011993948
0.02523547 -0.044139288 0.47553974 -0.0014715716 0.99635553 -0.085284881 0.011974866
0.03341214 -0.044139285 0.47520328 0.00082946435 0.99659842 -0.082407452 0.0104849
0.045510985 -0.044139292 0.47479764 0.002120917 0.99766374 -0.068283133 0.0090978667
0.055530634 -0.044139292 0.47450629 0.0041831615 0.9973411 -0.072754554 0.010084263
0.064593807 -0.044139292 0.47520086 0.00020005037 0.99735671 -0.072660573 0.011296473
0.07467714 -0.044139292 0.47457191 -0.00010162823 0.99680531 -0.079869673 0.011255549
0.083041601 -0.044139292 0.47667408 -0.0054538259 0.99646974 -0.083775379 0.011235069
0.094611689 -0.044139292 0.47481817 0.0062123653 0.99691272 -0.078270853 0.012324269
0.1047061 -0.044139285 0.47504032 -0.0016634843 0.99679053 -0.080037199 0.012590262
0.11545891 -0.044139292 0.47578192 -0.0017267535 0.99707007 -0.076474547 0.011136482
0.12521005 -0.044139288 0.47667331 -0.0081210341 0.99657828 -0.082254365 0.012534421
0.13545005 -0.044139292 0.47511086 0.006338424 0.99613094 -0.087652609 0.012991752
0.14491664 -0.044139292 0.47482532 -0.0061098984 0.99673516 -0.080508128 0.012631012
0.15536092 -0.044139292 0.47699586 -0.0029716026 0.99024099 -0.13933381 0.030373372
0.16460133 -0.044139292 0.4738993 0.0094654728 0.99718004 -0.074447416 0.010347479
0.17574281 -0.044139292 0.47587982 0.0016107232 0.99706578 -0.076532267 0.010010194
0.18536811 -0.044139292 0.47582558 0.0049637011 0.99605227 -0.088629767 0.010911083
0.19418566 -0.044139292 0.47364631 -0.029608529 0.99694741 -0.072243184 0.012832345
0.20712231 -0.044139292 0.4741396 -0.26061815 0.96333122 -0.063806176 0.05003228
0.21258239 -0.044139292 0.47559017 -0.32463968 0.94439691 -0.052187439 0.064619258
0.22086827 -0.044117115 0.47509724 -0.55852073 0.8290084 -0.028277924 0.071658358
-0.17149125 -0.035371546 0.47027624 0.19923271 0.48441613 -0.85184932 0.086499304
-0.16464344 -0.034982827 0.47179317 0.13057891 0.48031065 -0.86732394 0.1022719
-0.15490055 -0.034355022 0.47395149 0.19239627 0.41494739 -0.88927072 0.082571208
-0.14609882 -0.033873908 0.47590128 0.1602993 0.37661093 -0.91239703 0.068142295
-0.13496742 -0.035189379 0.47836724 0.22815219 0.43770325 -0.86969095 0.090968736
-0.12890366 -0.037105497 0.47971049 0.21066931 0.46124107 -0.86190206 0.082825758
0.22143209 -0.03392132 0.47612804 -0.91204989 0.40574473 -0.059466459 0.085164838
-0.17166518 -0.024773132 0.4702377 0.21226881 0.17530517 -0.96135843 0.038549468
-0.16464391 -0.024939777 0.47179312 0.20866401 0.18328924 -0.96065837 0.040171001
-0.15458666 -0.025541322 0.47402105 0.19844493 0.2455952 -0.94884282 0.049270481
-0.14439403 -0.023292802 0.47627896 0.21527536 0.11033105 -0.97030073 0.017334919
-0.13565999 -0.026659627 0.47821379 0.23168017 0.22127591 -0.94729155 0.049673002
-0.12859021 -0.022888483 0.47977987 0.19451895 0.14286511 -0.97043902 0.031382482
0.22143209 -0.024890361 0.47442159 -0.98501456 0.16974775 -0.030527966 0.037829332
-0.17139249 -0.014991087 0.47029811 0.21663673 0.025586471 -0.97591692 0.0020210878
-0.16429685 -0.016311472 0.47186998 0.21994126 0.023327516 -0.97523415 0.0018311322
-0.15538315 -0.014474548 0.47384459 0.21645387 0.0014306736 -0.97629178 1.8052959e-05
-0.14503773 -0.015271118 0.47613639 0.2149729 0.010040979 -0.97656846 0.00027931161
-0.13478731 -0.014245862 0.47840706 0.2166696 0.0059156152 -0.9762271 0.00015049688
-0.12864208 -0.015906885 0.4797684 0.21624711 0.022801509 -0.97607231 0.0019257806
0.22143209 -0.013782186 0.47609663 -0.99161196 -0.00160448 -0.12924071 0.0260955
-0.17144859 -0.0049100243 0.47028565 0.21636547 -1.5163489e-06 -0.9763124 0.00011954525
-0.16478853 -0.005007924 0.47176105 0.21621527 2.5029274e-06 -0.97634572 0
-0.15478572 -0.0050578746 0.47397694 0.21633707 5.4540209e-07 -0.97631872 0
-0.14454627 -0.0046381443 0.47624525 0.21625215 -3.5583867e-06 -0.97633749 0.0001216638
-0.13482203 -0.0060957787 0.47839943 0.21625708 -1.871349e-06 -0.97633648 0.00012012274
-0.12813303 -0.0056716651 0.47988123 0.21624349 -3.4126154e-07 -0.97633952 7.2939079e-06
0.22143209 -0.0048062601 0.47379732 -0.99865502 -0.0013481115 -0.051829401 0.0049780258
-0.1713476 0.0048037781 0.47030804 0.21624888 1.2992265e-06 -0.97633827 6.4472638e-06
-0.16413909 0.0042722053 0.4719049 0.21631642 2.653285e-06 -0.97632331 0.00013881273
-0.15603259 0.005362425 0.47370079 0.21625918 2.8793729e-06 -0.976336 0.00014358705
-0.14527586 0.0038856771 0.47608358 0.216241 -3.9486026e-06 -0.97634 0
-0.13332732 0.004184512 0.47873053 0.21622972 2.8904271e-06 -0.97634256 2.0144287e-06
-0.12848768 0.0042756214 0.47980264 0.21627888 -4.6251387e-07 -0.97633159 0
0.22143207 0.0047228648 0.47414237 -0.99895364 -0.001246845 -0.045717817 0.00524134
-0.17135057 0.016629938 0.47030738 0.21362381 -0.025461914 -0.97658414 0.0023407124
-0.16456553 0.015078808 0.47181043 0.2140912 -0.021148609 -0.97658479 0.0022641211
-0.15688404 0.013486078 0.47351208 0.21537404 -0.0045900587 -0.97652078 7.8538993e-05
-0.14447013 0.015531466 0.47626212 0.21419197 -0.020133764 -0.97658408 0.00069520407
-0.13437214 0.014197186 0.47849908 0.21880542 -0.015958507 -0.97563797 0.00089569966
-0.12797417 0.010955716 0.47991639 0.21633834 4.1143417e-06 -0.97631848 0.00012402987
0.22143209 0.014064466 0.47537526 -0.99665821 -0.0070885001 -0.081377238 0.015702358
-0.17232235 0.027304238 0.47009215 0.19572724 -0.20805022 -0.95833504 0.046475142
-0.16478208 0.024635367 0.47176242 0.20482165 -0.17994089 -0.96211714 0.041139439
-0.15509591 0.025343334 0.47390822 0.16916449 -0.25215369 -0.95278639 0.054092947
-0.14571391 0.025885332 0.47598666 0.20127918 -0.25755692 -0.94506675 0.053249575
-0.1363014 0.02496394 0.47807166 0.23325208 -0.2114027 -0.94915873 0.043326788
-0.12905568 0.023726607 0.47967681 0.20801592 -0.16202414 -0.96461266 0.033347514
0.22143209 0.023889013 0.47424328 -0.98763829 -0.1545321 -0.026275463 0.029662158
-0.17103426 0.033821873 0.47037748 0.22150759 -0.42646143 -0.8769635 0.087903202
-0.16494517 0.034671448 0.47172639 0.18390743 -0.45546478 -0.87105107 0.087021947
-0.15490435 0.035886083 0.47395068 0.15982994 -0.46800911 -0.86915004 0.070704795
-0.14607364 0.034758661 0.47590688 0.15679522 -0.43400893 -0.88715923 0.069832392
-0.13373312 0.033798184 0.47864059 0.2196406 -0.40988609 -0.8852973 0.08435303
0.22143209 0.034811195 0.47609916 -0.86893952 -0.49298567 -0.04369469 0.083073065
-0.17242873 0.04383665 0.47006857 0.23459581 -0.59874988 -0.765809 0.088068299
-0.1675749 0.042231698 0.47113654 0.14175756 -0.66895568 -0.72965968 0.10131131
-0.15473108 0.043290984 0.47281 0.13119289 -0.66517031 -0.73507613 0.1034318
-0.14593276 0.043211959 0.47467148 0.056052286 -0.75425953 -0.65417945 0.078299485
-0.13528147 0.043728791 0.47458801 0.17877311 -0.74041307 -0.64794189 0.10267983
-0.12674323 0.043295443 0.47705212 0.11889212 -0.68948132 -0.71447897 0.086791702
-0.11501588 0.044139281 0.47593921 0.15088549 -0.85014784 -0.50446236 0.086880617
-0.10376205 0.044139292 0.4758485 0.081163026 -0.91002226 -0.40653652 0.061932638
-0.095573932 0.044139285 0.474989 0.045749839 -0.94062412 -0.33635274 0.062096044
-0.085196689 0.044139288 0.47541526 0.080702558 -0.93519616 -0.34481183 0.064384237
-0.074563079 0.044139285 0.4742524 0.051642757 -0.96702534 -0.2493894 0.055536129
-0.065188497 0.044139281 0.47564989 0.098134719 -0.96957135 -0.224279 0.053368878
-0.055360083 0.044139288 0.47384092 0.046822224 -0.98410147 -0.17132419 0.036140088
-0.045193601 0.044139288 0.4740873 0.025071228 -0.99522531 -0.094329581 0.012117137
-0.033511005 0.044139285 0.47477347 0.023937343 -0.9910714 -0.13116586 0.020743996
-0.025459677 0.044139281 0.47460344 -0.0050466419 -0.99574959 -0.091964021 0.013345251
-0.015941495 0.044139285 0.47556055 -0.0061576646 -0.99645519 -0.083898216 0.011533675
-0.0058352784 0.044139281 0.47452283 -0.0047728843 -0.99631447 -0.085643142 0.011094774
0.00561806 0.044139292 0.47403315 -0.013015644 -0.99827218 -0.057299186 0.0069338884
0.015439286 0.044139281 0.47388402 -0.0041919216 -0.99698144 -0.077527225 0.010425637
0.024635093 0.044139281 0.4737258 0.0061650597 -0.99737096 -0.072202101 0.0093883127
0.035025701 0.044139285 0.47494578 -0.0014855129 -0.996831 -0.079534933 0.010317378
0.045409426 0.044139292 0.47561613 0.0083809281 -0.99694377 -0.077671468 0.0093687307
0.05511941 0.044139281 0.4745208 -0.001314319 -0.99706596 -0.076536529 0.010994894
0.065912105 0.044139288 0.47527424 0.00059145805 -0.99589962 -0.090463176 0.011969714
0.074825279 0.044139288 0.47443184 -0.0033090408 -0.99615306 -0.087567449 0.012623804
0.085195713 0.044139281 0.47471291 0.0061475881 -0.99588078 -0.09046372 0.01317897
0.09567932 0.044139281 0.47449648 0.0018668639 -0.99585027 -0.09098763 0.012272905
0.10500537 0.044139281 0.47469011 0.0088601643 -0.99592477 -0.08975216 0.012568155
0.11503598 0.044139281 0.47577313 -0.0021369534 -0.99663293 -0.08196459 0.010817702
0.12716325 0.044139285 0.47627488 0.0074299276 -0.99655569 -0.082592763 0.010871241
0.1348692 0.044139281 0.4760941 -0.0080137532 -0.99281675 -0.11937599 0.024115482
0.14534611 0.044139281 0.47543302 -0.00081144954 -0.9962858 -0.086104661 0.012189179
0.15427706 0.044139281 0.47620118 -0.0094938334 -0.99579275 -0.09114141 0.011593824
0.16511184 0.044139281 0.47539818 -0.0029628414 -0.9956497 -0.093128785 0.013424556
0.17395075 0.044139281 0.47549409 -0.0032995422 -0.99670058 -0.081099316 0.011397079
0.18376473 0.044139285 0.47448775 -0.0044361753 -0.99683565 -0.07936576 0.01066666
0.19606555 0.044139288 0.47409329 -0.069673233 -0.99473524 -0.075149022 0.018067531
0.20546612 0.044139281 0.47411782 -0.23626928 -0.97036332 -0.050713025 0.048342831
0.21585198 0.044139281 0.47506651 -0.4853881 -0.87356842 -0.035729777 0.064516239
0.22080545 0.042977434 0.47417706 -0.67133981 -0.74039704 -0.033394109 0.080129825
-0.12360299 -0.042927787 0.48084944 0.22873913 0.64800292 -0.72647828 0.095452473
-0.11653996 -0.042982817 0.48231354 0.14663014 0.63182396 -0.76111639 0.10356438
-0.10640338 -0.043088343 0.48394006 0.10875389 0.72932512 -0.67546833 0.080576301
-0.095227025 -0.043003619 0.48521677 0.12706676 0.67221814 -0.72936743 0.078852862
-0.085444279 -0.043097496 0.486159 0.14989682 0.76784497 -0.62285233 0.089153633
-0.073211484 -0.044139292 0.48441017 0.10918805 0.90266913 -0.4162527 0.071465172
-0.066694595 -0.044139292 0.48308924 0.08381068 0.93594766 -0.34202021 0.064637125
-0.05465591 -0.044139292 0.48351288 0.086879894 0.93557066 -0.34228557 0.055112209
-0.046040654 -0.044139292 0.48555207 0.046122324 0.92258555 -0.38302559 0.058662653
-0.036493007 -0.044139292 0.485356 0.066383198 0.92338765 -0.37808523 0.063837305
-0.025569994 -0.044139292 0.48328769 0.0054522562 0.96329719 -0.26838183 0.053785622
-0.016057964 -0.044139292 0.4850153 0.016813753 0.95751667 -0.28788707 0.05430771
-0.0033355206 -0.044139292 0.48374975 0.022661135 0.97131926 -0.23669675 0.048203237
0.005463684 -0.044139292 0.48654738 0.012025506 0.95633364 -0.29202986 0.059671618
0.014405474 -0.044139292 0.48479024 0.014555741 0.96208066 -0.27237657 0.057242736
0.025011992 -0.044139292 0.48533303 -0.00033761308 0.96431005 -0.26477543 0.053846773
0.033425622 -0.044139292 0.48681492 0.015961483 0.95261836 -0.30374882 0.061574645
0.044828322 -0.044139292 0.48606411 -0.0049408353 0.9684509 -0.24915554 0.05161823
0.055471022 -0.044139292 0.48428515 0.0087193158 0.97274208 -0.23172548 0.050462022
0.066545144 -0.044139292 0.48544294 0.029604126 0.97285205 -0.22952664 0.056682155
0.074705608 -0.044139292 0.48466268 -0.020389101 0.96336204 -0.26742828 0.058450371
0.085339271 -0.044139292 0.48327094 0.019703396 0.97672123 -0.21360573 0.049159832
0.096612737 -0.044139292 0.48653483 0.013290579 0.9554553 -0.2948361 0.062259808
0.10457946 -0.044139292 0.48400286 0.012676401 0.97591227 -0.21779446 0.048534621
0.11418789 -0.044139288 0.48474458 -0.012029202 0.96420187 -0.26489642 0.056975305
0.1263524 -0.044139292 0.48553133 -0.0030477883 0.95720452 -0.28939626 0.059484951
0.13432932 -0.044139292 0.48546785 -0.041003115 0.95658016 -0.28857091 0.059664596
0.14515424 -0.044139292 0.48476815 -0.024569424 0.96229333 -0.27090204 0.062840551
0.15560383 -0.044139288 0.48594055 0.010902389 0.95569545 -0.29415536 0.053108294
0.16516185 -0.044139288 0.48461795 0.018886598 0.96754062 -0.25200874 0.05037779
0.17719266 -0.044139288 0.48500443 -0.0021162683 0.96139282 -0.27517158 0.056049693
0.18490741 -0.044139288 0.48408821 -0.013734229 0.96538705 -0.26045987 0.047586851
0.19509809 -0.044139292 0.48521483 -0.045351107 0.96919429 -0.24208629 0.04603184
0.20538065 -0.044139288 0.48575452 -0.21967401 0.93042499 -0.2933473 0.087873228
0.21599412 -0.044139292 0.48528481 -0.53801793 0.81449771 -0.21709485 0.11090957
0.22110361 -0.04309345 0.48473087 -0.67695886 0.69514388 -0.24187109 0.09991394
-0.12348134 -0.035067085 0.48091164 0.24855965 0.38794404 -0.8875345 0.076896764
-0.11442179 -0.035332397 0.48291859 0.19087608 0.37423396 -0.90747744 0.071109213
-0.10476916 -0.034786642 0.48505694 0.21411218 0.38179961 -0.89910233 0.065893792
-0.095629945 -0.035566125 0.48708144 0.14515418 0.58357191 -0.79898316 0.083857782
-0.087032303 -0.034744654 0.48898602 0.20210278 0.49720305 -0.84376752 0.095334731
0.22143209 -0.035264045 0.48395038 -0.90975422 0.34111804 -0.23661314 0.094224848
-0.12326812 -0.025000066 0.48095888 0.2149528 0.17533259 -0.9607569 0.037985004
-0.11562442 -0.025289785 0.48265216 0.17520522 0.20975123 -0.96192908 0.048497472
-0.10539587 -0.025445275 0.48491806 0.22656912 0.24639839 -0.94231331 0.053616248
-0.094349712 -0.026061755 0.4873651 0.2033619 0.2282431 -0.95212865 0.047207244
-0.085168257 -0.024018025 0.48939899 0.20587647 0.14920013 -0.96713716 0.035574872
0.22143209 -0.025372887 0.48579755 -0.93589538 0.1581658 -0.31477505 0.078098461
-0.12465294 -0.0142062 0.48065212 0.21608239 0.00050628179 -0.97637504 0
-0.11681602 -0.014292554 0.4823882 0.21614268 0.00057947054 -0.97636163 0
-0.10486683 -0.014963645 0.48503521 0.21428922 0.01006279 -0.97671843 0.00026800993
-0.095630065 -0.014432506 0.48708141 0.21653169 0.0070788939 -0.97624987 0.000271795
-0.085414 -0.014501251 0.48934454 0.21763317 0.0091423942 -0.97598779 0.00059940014
0.22143209 -0.014643295 0.48652667 -0.93347615 0.046987541 -0.35554805 0.069676608
-0.12345178 -0.0040921965 0.4809182 0.21626815 -2.5996971e-07 -0.97633398 0
-0.11575858 -0.0060367049 0.48262239 0.21631028 -8.3811938e-07 -0.97632468 5.53668e-06
-0.10580034 -0.0057152123 0.48482844 0.21628864 -3.0838285e-06 -0.97632945 0
-0.096759513 -0.0049848123 0.48683125 0.21629316 -1.5561287e-06 -0.97632849 0.00016099133
-0.085038483 -0.0054536699 0.48942772 0.21626481 -1.2219425e-06 -0.97633475 0
0.22143209 -0.0066926959 0.48517594 -0.98072636 -0.0098829493 -0.19513644 0.036636334
-0.12401918 0.0050933012 0.48079249 0.21626669 1.6665171e-06 -0.97633427 4.3104803e-05
-0.11285142 0.0038410097 0.48326644 0.21635905 -4.4539411e-06 -0.97631389 2.0509349e-05
-0.10443388 0.005850269 0.48513114 0.21630487 -6.265398e-06 -0.97632593 0
-0.095547996 0.0053515825 0.48709959 0.21627232 -2.1135957e-06 -0.97633308 2.6936088e-05
-0.086268425 0.0047571459 0.48915523 0.21634315 -1.0783821e-05 -0.97631735 0
0.22143209 0.0048674978 0.48492798 -0.98112994 -0.012525051 -0.19294335 0.042451441
-0.123447 0.015506399 0.48091927 0.21888123 -0.01284795 -0.97566694 0.00067757344
-0.11571546 0.016146412 0.48263198 0.21884172 -0.031842005 -0.97524071 0.0029369134
-0.10431866 0.0156137 0.48515669 0.2154437 -0.013067977 -0.97642887 0.00012758306
-0.09512794 0.013577749 0.48719263 0.21629673 8.2288598e-06 -0.97632766 1.387152e-05
-0.085959315 0.016385423 0.48922375 0.21945959 -0.01729189 -0.97546834 0.00092044851
0.22143209 0.014524523 0.48568797 -0.96898842 -0.012496183 -0.24679025 0.047343042
-0.12417763 0.026373059 0.48075739 0.19967368 -0.18401688 -0.96242833 0.037544176
-0.11431556 0.025865747 0.4829421 0.23250364 -0.21147665 -0.94932586 0.041099232
-0.10506777 0.024256401 0.48499069 0.20915811 -0.19739226 -0.95775211 0.041457403
-0.094856478 0.025363004 0.48725277 0.23633316 -0.1780799 -0.9552142 0.038119372
-0.085715517 0.025982261 0.48927778 0.22494277 -0.18088685 -0.95743442 0.032676701
0.22143209 0.02804281 0.4852739 -0.95898986 -0.2027519 -0.19806594 0.064551651
-0.12458015 0.034761999 0.48066822 0.21408081 -0.46060631 -0.86140078 0.09436401
-0.11566103 0.034860641 0.48264414 0.250278 -0.50122267 -0.82833374 0.085280262
-0.10550965 0.035971135 0.48489285 0.17590043 -0.47402844 -0.86276072 0.06848342
-0.094793111 0.035293642 0.48726681 0.21382351 -0.38154638 -0.89927852 0.078642309
-0.086550631 0.035317212 0.48909274 0.1817349 -0.48168778 -0.85729182 0.08322265
0.22143209 0.035281908 0.4841837 -0.85171717 -0.49529818 -0.17104852 0.094938017
-0.12341259 0.042443499 0.48092687 0.20567738 -0.65119082 -0.73051167 0.087606996
-0.11615446 0.043229219 0.48171571 0.19839887 -0.71257633 -0.67295831 0.10228629
-0.10300501 0.043608837 0.48382902 0.15437268 -0.78688586 -0.59747779 0.084829658
-0.094598383 0.043698244 0.48518154 0.13310993 -0.72525454 -0.67549062 0.090769969
-0.085473239 0.043763068 0.48600972 0.20066747 -0.70435196 -0.68089712 0.08904165
-0.073930435 0.044139292 0.48521146 0.08497148 -0.85723841 -0.5078603 0.073566996
-0.065477081 0.044139281 0.48453149 0.090881743 -0.92014301 -0.38089025 0.072590403
-0.054641753 0.044139285 0.48402691 0.078201897 -0.93505991 -0.34575659 0.056560684
-0.044580784 0.044139285 0.48350772 0.015400145 -0.95162773 -0.30686703 0.054759808
-0.033719972 0.044139285 0.48549271 0.045242157 -0.94582772 -0.32150126 0.053375661
-0.026537383 0.044139281 0.48426533 -0.0013751519 -0.96006191 -0.27978438 0.055007603
-0.014255572 0.044139292 0.4856461 0.023339547 -0.96079618 -0.27627167 0.051224094
-0.0049449331 0.044139281 0.48557776 0.028843571 -0.95053744 -0.30926773 0.056326281
0.0043230485 0.044139288 0.48527682 0.01731916 -0.96650302 -0.25607005 0.059376184
0.015012033 0.044139281 0.4851172 0.0066162921 -0.96494478 -0.26236954 0.051206321
0.024924494 0.044139281 0.48498312 -0.013577163 -0.96682441 -0.2550807 0.053332649
0.034745626 0.044139292 0.48449621 0.016451022 -0.97293216 -0.23050471 0.050383985
0.044650618 0.044139281 0.48478878 -0.0038910599 -0.97202641 -0.2348392 0.049614109
0.055204198 0.044139281 0.48474848 -0.013364049 -0.96501333 -0.2618601 0.054883189
0.064506032 0.044139285 0.48508808 -0.024423121 -0.96162987 -0.2732611 0.053052679
0.073878996 0.044139281 0.48482212 0.0071319146 -0.95956767 -0.28138781 0.054410055
0.086213335 0.044139281 0.48490688 0.033078197 -0.96211326 -0.27063614 0.052264288
0.094645783 0.044139292 0.48441374 -0.01690753 -0.96729439 -0.25309211 0.056673631
0.10400701 0.044139281 0.4847571 0.0091741346 -0.95974797 -0.28071266 0.061806653
0.11500601 0.044139281 0.48496312 0.0093481457 -0.96672738 -0.25563818 0.055492606
0.12615459 0.044139292 0.48409587 0.027602624 -0.97169 -0.23464145 0.048061676
0.13490666 0.044139285 0.48379913 -0.00085393689 -0.97399312 -0.2265761 0.051325958
0.14445683 0.044139288 0.48493862 -0.034508891 -0.96823144 -0.24766323 0.053488005
0.15542474 0.044139281 0.48497453 -0.0017554155 -0.96018565 -0.27935719 0.052880902
0.16388251 0.044139281 0.48385838 -0.019714894 -0.96676135 -0.25491926 0.055072665
0.17503074 0.044139281 0.48525721 0.0063471459 -0.96008241 -0.27964529 0.053853177
0.18620163 0.044139285 0.48462328 0.0062837368 -0.96014488 -0.27943227 0.054685969
0.19564129 0.044139288 0.48457402 -0.037997484 -0.97228563 -0.23068802 0.048603147
0.20477588 0.044139285 0.48454911 -0.22334248 -0.94572282 -0.23606469 0.072491273
0.21572767 0.044139281 0.48467517 -0.39975059 -0.89532435 -0.19645303 0.083785124
0.22086123 0.043521244 0.48525056 -0.66522264 -0.70868343 -0.23504616 0.10334559
-0.081639349 -0.041240916 0.4901807 0.16434373 0.71504986 -0.67948127 0.084483087
-0.07533823 -0.042199146 0.49140531 0.17577732 0.64658982 -0.74230981 0.096798129
-0.064372249 -0.042935636 0.49370861 0.19854955 0.73283029 -0.65079778 0.083911769
-0.052851614 -0.042713922 0.49597308 0.17014796 0.52949679 -0.83107334 0.072455078
-0.044848334 -0.043585733 0.4958027 0.14846903 0.72703296 -0.67035806 0.091894142
-0.035451859 -0.043610994 0.49662712 0.12059947 0.61076677 -0.78257251 0.093751453
-0.026215335 -0.044139292 0.49318871 0.06388098 0.87809306 -0.47420645 0.08976005
-0.014284781 -0.044139292 0.4966802 0.014829037 0.78104728 -0.62429589 0.084615357
-0.0054176212 -0.044139292 0.49266437 -0.015844014 0.90949565 -0.41541153 0.069818504
0.005789482 -0.044139292 0.49532488 0.049321741 0.7855112 -0.61687881 0.083895735
0.014789463 -0.044139292 0.49375656 0.014303479 0.89375246 -0.44833237 0.075295754
0.024889756 -0.044139292 0.49446866 0.010883413 0.85247552 -0.52265382 0.092156462
0.036178891 -0.044139292 0.49590147 0.04398448 0.79188198 -0.60908812 0.092542358
0.044588719 -0.044139288 0.49565977 -0.044776198 0.79682434 -0.60254967 0.091444813
0.054671299 -0.044139292 0.49550286 -0.032751381 0.80073065 -0.59812868 0.095047154
0.063758992 -0.044139292 0.49776992 -0.053814355 0.7390002 -0.67155254 0.098807663
0.075004943 -0.044139292 0.49536631 0.0086271623 0.89995104 -0.43590575 0.081017725
0.085370883 -0.044139285 0.49668902 0.035197377 0.85758847 -0.51313084 0.08218468
0.094778545 -0.044139292 0.49433783 0.0084680337 0.9029066 -0.42975336 0.074294247
0.10321607 -0.044139292 0.49487716 -0.049993724 0.84450674 -0.53320646 0.094040401
0.11145753 -0.044139285 0.49626255 0.003070886 0.71814573 -0.69588602 0.093329012
0.12513226 -0.044139292 0.49473092 -0.06449794 0.7281301 -0.68239766 0.092249714
0.13370208 -0.044139292 0.49525532 -0.076993175 0.76436812 -0.64016664 0.082203746
0.14607577 -0.044139292 0.49273643 0.037522148 0.87546486 -0.48182306 0.087774701
0.15631638 -0.044139288 0.49485046 0.037125267 0.79857963 -0.60074311 0.08419209
0.16449828 -0.044139292 0.49540287 -0.025908342 0.7888639 -0.6140216 0.085543074
0.17430508 -0.044139292 0.49502766 -0.0080642439 0.85666192 -0.51581526 0.069804698
0.18432637 -0.044139292 0.49350524 -0.038621556 0.85575104 -0.51594436 0.085971534
0.19495346 -0.044139292 0.49513057 0.0055441931 0.85522997 -0.51821899 0.085013092
0.20632111 -0.044139292 0.49279177 -0.18149152 0.86849773 -0.46127269 0.10799307
0.21453132 -0.044139292 0.49506342 -0.47007072 0.63668811 -0.61127877 0.13366443
0.22143209 -0.041722596 0.49629101 -0.6463123 0.54324788 -0.53587502 0.12409776
-0.080997556 -0.032965962 0.49032292 0.17749153 0.37753847 -0.90882421 0.084729984
-0.075089581 -0.0350351 0.49163166 0.16300146 0.47555023 -0.86445504 0.095510609
-0.065264024 -0.035863254 0.49380827 0.19586244 0.56580716 -0.800937 0.082384877
-0.054855645 -0.034262393 0.49611405 0.17340797 0.39930955 -0.90026748 0.065133974
-0.044747055 -0.0355707 0.49835333 0.17593168 0.45530996 -0.8727777 0.079036526
-0.038920224 -0.035544112 0.49964413 0.097355478 0.49401498 -0.86398566 0.082523197
0.22143209 -0.035994109 0.49129847 -0.78854501 0.40248421 -0.46497655 0.10871632
-0.08047878 -0.025224579 0.49043781 0.20850483 0.22404006 -0.95201457 0.04458829
-0.074691214 -0.025426814 0.4917199 0.19050522 0.21867619 -0.9570207 0.050528094
-0.065482408 -0.024781426 0.49375993 0.21120135 0.2158576 -0.95330971 0.043068096
-0.054394227 -0.024683347 0.49621624 0.20216641 0.17781068 -0.96307427 0.034712896
-0.04538532 -0.024581209 0.49821186 0.16160019 0.12085987 -0.97942752 0.023522435
-0.039153326 -0.027061868 0.49959245 0.15574951 0.25338885 -0.95474404 0.059889995
0.22143209 -0.023526484 0.49404889 -0.86084896 0.14362949 -0.48816985 0.081204511
-0.074201055 -0.014676678 0.49182853 0.21591659 0.0013113618 -0.97641087 2.4062922e-05
-0.063550048 -0.01494252 0.49418795 0.21594226 0.0031748901 -0.97640103 0.00010528911
-0.054287072 -0.014720592 0.49623999 0.19890134 0.002018712 -0.98001742 0.00044268771
-0.044251531 -0.014991308 0.498463 0.14419165 0.016766781 -0.98940772 0.0018168244
-0.038222134 -0.016090458 0.49979874 0.12699619 0.015674384 -0.99177933 0.0023049824
0.22143209 -0.017366646 0.49314737 -0.85334122 0.040887956 -0.5197469 0.087336048
-0.08099293 -0.0039476412 0.49032393 0.21628572 -2.2274211e-08 -0.9763301 0
-0.074909955 -0.0053323368 0.49167141 0.21628825 4.229058e-07 -0.97632957 2.7775217e-05
-0.064939454 -0.0042365608 0.49388024 0.21636412 2.9780674e-06 -0.9763127 0.00026983541
-0.054732129 -0.0054868083 0.49614137 0.2002712 -2.9945981e-05 -0.9797405 0.00030894284
-0.044890668 -0.0043270937 0.4983215 0.1520334 0.0010257078 -0.98837477 0.0013693256
-0.038857948 -0.0055151596 0.4996579 0.12200841 -0.00093939016 -0.99252862 0.0019242695
0.22143209 -0.0063886861 0.49591976 -0.74315912 0.012120086 -0.66900498 0.1015027
-0.080793157 0.0048862486 0.49036819 0.21633519 -3.8626558e-06 -0.97631919 0
-0.074980736 0.0057914038 0.49165574 0.2163444 1.5431987e-06 -0.97631705 0
-0.064007342 0.0041345288 0.49408656 0.21629132 1.0950225e-06 -0.97632885 7.8000921e-05
-0.054784235 0.0052636024 0.49612981 0.20060775 -0.0024390123 -0.97966862 0.0002544123
-0.045057282 0.0048849126 0.49828464 0.1692168 0.0046107708 -0.98556811 0.00082354905
-0.038788568 0.0061133271 0.49967328 0.12865527 0.0066628382 -0.99166703 0.001855621
0.22143209 0.0046735695 0.49488989 -0.75725424 0.013173781 -0.6529873 0.095012277
-0.081430815 0.014013509 0.49022689 0.21593997 -0.0015425578 -0.97640544 0
-0.075285174 0.01420178 0.49158832 0.2158576 -0.0016815952 -0.97642344 0
-0.066312388 0.014544253 0.49357605 0.2160666 -0.004810195 -0.97636676 0
-0.055284712 0.014725367 0.49601892 0.20707136 -0.0074375225 -0.97829765 0.00028831782
-0.044707946 0.015633263 0.49836195 0.15360397 -0.016699661 -0.98799139 0.0019700378
-0.038448069 0.013837128 0.49974871 0.12385991 -0.0056906482 -0.9922834 0.0019992839
0.22143209 0.016329227 0.49534419 -0.72560048 0.00094023708 -0.6881156 0.095122531
-0.081232473 0.024080094 0.49027085 0.2074479 -0.16420975 -0.9643653 0.033839677
-0.076265574 0.024796793 0.49137115 0.19284065 -0.17873146 -0.96481472 0.037460279
-0.065400764 0.024933394 0.49377799 0.22485639 -0.197864 -0.95409089 0.042311963
-0.055167947 0.024544261 0.49604478 0.21805654 -0.18395606 -0.95844221 0.034449127
-0.044550229 0.024560738 0.4983969 0.1713623 -0.13209282 -0.97631264 0.026753584
-0.037886534 0.029700598 0.49987307 0.12857583 -0.23842128 -0.96261287 0.05350377
0.22143209 0.024647862 0.49521282 -0.76808292 -0.17073742 -0.61716878 0.10797307
-0.081669964 0.033622004 0.49017394 0.22465524 -0.3362152 -0.91459799 0.071874
-0.07460653 0.034706872 0.49173865 0.18442029 -0.39302471 -0.9008444 0.084276773
-0.064520068 0.035568487 0.49397308 0.19928034 -0.4313539 -0.87989837 0.063738808
-0.055310633 0.036442026 0.49601319 0.15633555 -0.44818577 -0.88016403 0.068291098
-0.045024414 0.034762207 0.49829185 0.20664667 -0.38444579 -0.89972138 0.081505723
-0.038446587 0.033632115 0.499749 0.12293114 -0.37146819 -0.92027128 0.073626228
0.22143209 0.034525152 0.49344087 -0.71947992 -0.43865231 -0.538454 0.12694958
-0.080975801 0.041312296 0.49032772 0.22924042 -0.56618172 -0.79176205 0.086903758
-0.074849561 0.042912006 0.49120456 0.16770887 -0.52974784 -0.83140898 0.098075405
-0.063868858 0.043285612 0.49308875 0.14042409 -0.64567202 -0.75059223 0.087187149
-0.054304004 0.042966481 0.49452943 0.1172611 -0.76307553 -0.63558286 0.081726789
-0.0434517 0.043154817 0.49630564 0.14772357 -0.68572044 -0.71271682 0.10206816
-0.036962908 0.04387312 0.49604678 0.059405148 -0.69570601 -0.71586603 0.095153391
-0.024657549 0.044139281 0.49482483 0.06015211 -0.79668611 -0.60139251 0.096198224
-0.014509179 0.044139281 0.49399108 0.020339597 -0.80356723 -0.59486639 0.095478237
-0.005003666 0.044139281 0.49532405 -0.0013598539 -0.86467761 -0.50232553 0.067905217
0.0048944321 0.044139281 0.49460083 0.013087028 -0.85451442 -0.51926297 0.091821536
0.015279487 0.044139288 0.49522743 0.036941044 -0.86206603 -0.50544786 0.088415392
0.024509637 0.044139281 0.49587113 -0.048436776 -0.8075633 -0.58778858 0.093601577
0.035225593 0.044139285 0.49489731 0.0026788677 -0.82320303 -0.56774074 0.091105573
0.044002526 0.044139292 0.49530685 -0.044440571 -0.75185758 -0.65782613 0.096040048
0.054893613 0.044139288 0.49445504 -0.05286897 -0.85514712 -0.51568234 0.093539231
0.067090675 0.044139292 0.49496889 -0.0061968756 -0.87266231 -0.48828492 0.080725536
0.074766539 0.044139281 0.4944281 0.020861734 -0.85011584 -0.52618235 0.092921466
0.08555162 0.044139288 0.49458912 0.021283936 -0.84455758 -0.53504145 0.096444815
0.094744034 0.044139281 0.49584249 0.032860834 -0.78673297 -0.61641836 0.085957848
0.10341089 0.044139288 0.49459317 -0.044944096 -0.84788007 -0.52827966 0.072814651
0.11417206 0.044139281 0.49464774 0.031376164 -0.83695626 -0.54636961 0.085539043
0.12407764 0.044139292 0.49423906 -0.0020037091 -0.88935649 -0.45720997 0.077685982
0.13411082 0.044139285 0.49523091 -0.053487603 -0.837304 -0.54411495 0.096865118
0.14392419 0.044139285 0.4952406 -0.070782527 -0.78136265 -0.62005025 0.087497212
0.15382017 0.044139281 0.49458426 -0.018893957 -0.83844674 -0.54465604 0.084854275
0.16417097 0.044139292 0.4960171 -0.050120898 -0.78624028 -0.61588484 0.09248022
0.17492431 0.044139285 0.49467847 0.027045859 -0.83853841 -0.54417074 0.093416028
0.18349905 0.044139281 0.49477601 -0.045809098 -0.89197731 -0.44975343 0.070729472
0.19580437 0.044139281 0.49411753 -0.0057101068 -0.85709125 -0.51513296 0.082631916
0.20466773 0.044139281 0.49463242 -0.17817852 -0.85034841 -0.49513629 0.097254716
0.21470168 0.044139281 0.49527925 -0.46961877 -0.71629351 -0.51612192 0.14818518
0.22134285 0.042650033 0.49627942 -0.57793653 -0.65178955 -0.49108028 0.13382436
-0.032891691 -0.042044483 0.5 0.14815432 0.53818792 -0.82970113 0.08131057
-0.027529527 -0.041021105 0.5 0.020715993 0.59983128 -0.79985821 0.092994519
-0.015253699 -0.041759241 0.5 -0.038046788 0.58533865 -0.80989575 0.093224183
-0.003493729 -0.042356819 0.5 0.019950032 0.63799721 -0.76978022 0.090303481
0.0053564869 -0.04192527 0.5 0.053720661 0.56987196 -0.81997561 0.098291129
0.01842176 -0.042238448 0.5 0.042238612 0.68013155 -0.7318722 0.086840324
0.024392838 -0.04166035 0.5 -0.018785506 0.57076734 -0.82089686 0.10276918
0.035032097 -0.041730165 0.5 -0.009256362 0.57236296 -0.81994814 0.095735461
0.047362074 -0.042193413 0.5 0.037693333 0.58350134 -0.81123692 0.093391314
0.054486856 -0.042472165 0.5 -0.0078738118 0.59430844 -0.80419868 0.11420388
0.066484459 -0.041901246 0.5 0.036517158 0.63443297 -0.77211481 0.1033658
0.075476825 -0.042846117 0.5 0.010921463 0.62227476 -0.78272271 0.10403821
0.084938973 -0.04254498 0.5 0.03496822 0.70611167 -0.70723659 0.10354612
0.096009195 -0.042019758 0.5 0.013519792 0.62956703 -0.77682853 0.097597867
0.10596647 -0.042875439 0.5 0.050893791 0.64283955 -0.76430827 0.098272152
0.11686521 -0.0428573 0.5 0.045355834 0.57926929 -0.81387347 0.10114417
0.12350573 -0.04254061 0.5 -0.074440822 0.57557696 -0.81435233 0.08738564
0.13591336 -0.041983377 0.5 0.0029136615 0.5763244 -0.8172158 0.086560011
0.14463657 -0.042340077 0.5 -0.0071453135 0.58676565 -0.80972528 0.084892541
0.16477793 -0.041872233 0.5 -0.013309977 0.65143079 -0.75859141 0.094837554
0.17455477 -0.042439967 0.5 -0.036859777 0.59328151 -0.8041507 0.095264375
0.18515538 -0.041324247 0.5 0.010559112 0.5895654 -0.8076517 0.090595417
0.19583371 -0.041855156 0.5 -0.03102362 0.66642058 -0.74493021 0.095193319
0.20474321 -0.04309126 0.5 -0.20542118 0.62926793 -0.74954915 0.10905495
0.21516739 -0.041717008 0.5 -0.47370124 0.5458594 -0.69111836 0.11992746
-0.032834034 -0.034822464 0.5 0.12893517 0.40300694 -0.90606898 0.080604538
-0.025389703 -0.034078762 0.5 0.032801494 0.38669524 -0.92162406 0.071464524
-0.016473852 -0.034139227 0.5 -0.026487693 0.44887298 -0.8932029 0.087621398
-0.0057722968 -0.034272019 0.5 -0.037526935 0.45675403 -0.88880116 0.087685555
