# .PCD v0.7 - Point Cloud Data file format
VERSION 0.7
FIELDS x y z normal_x normal_y normal_z curvature
SIZE 4 4 4 4 4 4 4
TYPE F F F F F F F
COUNT 1 1 1 1 1 1 1
WIDTH 572
HEIGHT 1
VIEWPOINT 0 0 0 1 0 0 0
POINTS 572
DATA ascii
-0.066700406 0.36456838 -0.0057754735 0.95909935 0.004072512 0.28304023 0.094674639
0.0086679691 0.3658317 -0.0055821771 0.94426942 -0.18487011 -0.27235717 0.099368826
0.010028576 0.36948594 -0.00020505238 0.99285161 -0.10974452 0.046922538 0.076528281
-0.15393634 0.37436804 -0.0058751251 0.98018992 -0.19651194 -0.024715286 0.065337643
-0.14674699 0.37530315 -0.0052907821 0.9649893 -0.26217932 0.0075987773 0.080088198
-0.067737207 0.37530935 -0.0043534436 0.96335655 0.06891945 0.25921834 0.09759891
0.0086302888 0.37345013 -0.0070080897 0.87814939 -0.052361019 -0.47551233 0.083251111
0.010134928 0.37454128 -0.0015956298 0.99663031 -0.076881357 0.028587174 0.092655972
-0.15277933 0.3845681 -0.006523435 0.96055681 -0.27793762 -0.0090157324 0.10610003
-0.14385986 0.38579962 -0.0045909965 0.92438376 -0.38100275 -0.018753558 0.1180357
-0.13742812 0.38639033 -0.0061563496 0.8846665 -0.46516898 -0.031351939 0.12423529
-0.068099551 0.38645402 -0.0053093918 0.93396837 0.16033311 0.31936893 0.078999467
0.0090563092 0.38558644 -0.0081062438 0.86893046 -0.16678998 -0.46598387 0.10235209
0.010653353 0.38815436 -0.003578417 0.98187691 -0.17274934 -0.077944525 0.11136992
-0.15186964 0.39431682 -0.0072574136 0.95197052 -0.30487746 -0.028318988 0.14323358
-0.14481618 0.39374834 -0.0045785825 0.91930574 -0.39337978 -0.011374197 0.14023295
-0.1342335 0.39521325 -0.0057558669 0.82862002 -0.55917066 0.026777402 0.17268497
-0.12887739 0.39894366 -0.0048968564 0.7526226 -0.65675855 -0.047196578 0.18181154
-0.068557449 0.39469025 -0.0055832202 0.94128239 0.14241262 0.30611438 0.088405818
0.009419959 0.39550185 -0.0089730229 0.8376534 -0.13607715 -0.52897984 0.15679729
0.010920942 0.39468417 -0.0039189486 0.97369462 -0.18254754 -0.13636409 0.14146499
-0.14588858 0.40575898 -0.0054864613 0.9157241 -0.39954555 -0.042575561 0.17809413
-0.13567743 0.40412897 -0.0045785825 0.81260568 -0.58059466 -0.050811332 0.19823205
-0.12510671 0.40567338 -0.0054773083 0.62290251 -0.78132176 0.039099179 0.20156392
-0.11871806 0.40854374 -0.0079032322 0.50797147 -0.83784115 0.19996794 0.18515329
-0.07025934 0.40522784 -0.0020797628 -0.97605407 -0.20927145 -0.059362646 0.17794706
-0.069255203 0.40471029 -0.0063413079 0.88330543 0.14520834 0.44574213 0.1567646
-0.014727357 0.40887991 -0.0045748814 -0.30519342 -0.9301793 0.20401835 0.23093662
-0.005734222 0.40668002 -0.0043520648 -0.94569492 -0.29763284 0.13067453 0.25556326
0.006480332 0.40503111 -0.0045584571 0.96825421 -0.1501607 -0.19983892 0.24334663
0.013012702 0.40635911 -0.0054909191 0.87754786 -0.40727505 -0.25305486 0.26540768
0.068786532 0.40961829 -0.005675815 -0.31281471 -0.94151849 -0.12525973 0.017174833
0.074809521 0.40575197 -0.0044352803 -0.27527216 -0.95664334 -0.095177852 0.014900384
0.084955014 0.40352544 -0.0051753554 -0.15014331 -0.98655182 -0.064594284 0.011838778
0.094288647 0.40353402 -0.0052403561 -0.061512109 -0.99375898 -0.093055263 0.011428694
0.1049989 0.40347236 -0.0047722617 -0.0054565398 -0.99768084 -0.06784714 0.013223515
0.11423359 0.40339693 -0.0041989521 0.017509092 -0.99781626 -0.063687786 0.012367593
0.12496786 0.40362588 -0.0059378464 0.012577828 -0.99580938 -0.090584517 0.011716515
0.13533439 0.40354604 -0.0053317128 0.19565515 -0.97770381 -0.076251745 0.043755181
0.14515243 0.4034659 -0.0047229095 0.35036939 -0.93343312 -0.077095821 0.053191517
0.1539737 0.40509543 -0.0042346925 0.54104775 -0.83659345 -0.085900195 0.067026861
-0.143114 0.41554782 -0.0062381625 0.89794815 -0.36632428 -0.24391736 0.18536356
-0.13414198 0.41399229 -0.0045785825 0.89980346 -0.43095422 -0.068059437 0.23542017
-0.12488113 0.41549796 -0.0041077062 0.31788036 -0.94281715 -0.10023953 0.28448603
-0.11443589 0.41473964 -0.0035687955 0.35330299 -0.93514991 -0.02591675 0.21502957
-0.10608415 0.4175545 -0.0058877342 0.39705199 -0.90609354 0.14609614 0.11172065
-0.070842378 0.41474342 -0.0033705651 -0.78599894 -0.59725231 -0.15967292 0.25217795
-0.069131851 0.41329813 -0.0087778894 -0.82337749 -0.41675782 -0.38517854 0.23866786
-0.050929919 0.41940975 -0.0052928352 0.12799862 -0.9550733 0.26730406 0.22583133
-0.044084799 0.41575098 -0.004185495 0.09072876 -0.99315202 0.073602974 0.19915074
-0.035053909 0.41319868 -0.0052164174 -0.13811895 -0.96197313 0.23564953 0.19536431
-0.025436535 0.41241437 -0.0046149623 -0.098155335 -0.9928655 0.067702122 0.19754331
-0.015079111 0.41495484 -0.0057068705 -0.11205662 -0.93590194 0.33396226 0.21281005
-0.0073907604 0.41929087 -0.0047964491 -0.078105405 -0.96546799 0.248538 0.21651404
0.0099477321 0.41467863 -0.0049818722 -0.81199163 -0.58203804 -0.043603338 0.28907484
0.011762479 0.41354507 -0.0060892659 0.99779224 -0.047426522 0.046490148 0.30537519
0.026707869 0.41293249 -0.0053355168 0.21599481 -0.9680444 -0.1274219 0.18935865
0.035336763 0.41519761 -0.0063123251 0.0068383589 -0.99713534 -0.075327963 0.072345473
0.044913609 0.41553062 -0.0040149032 -0.094602719 -0.98878974 -0.1155215 0.028271243
0.053471256 0.41483784 -0.0050058374 -0.22136828 -0.96506214 -0.1401827 0.028183084
0.064178638 0.41165751 -0.0050330507 -0.28197631 -0.95292753 -0.11143853 0.022123076
0.15553594 0.41574955 -0.0050020842 0.91309643 -0.40344578 -0.059046801 0.066383511
-0.14054625 0.42361808 -0.0079750447 0.92586607 -0.31143069 -0.21396957 0.16836558
-0.13519894 0.4250401 -0.0047890823 0.95997787 -0.1122318 -0.25660583 0.2022087
-0.12503682 0.42671129 -0.00167831 0.77484876 0.048808906 -0.63025957 0.29109618
-0.11763545 0.42442343 -0.0004789957 0.00036779576 -0.14222808 0.98983395 0.28557438
-0.10109507 0.42042047 -0.005638822 0.29948032 -0.94784856 0.10906286 0.084481239
-0.094612651 0.42357597 -0.0053926287 0.23342952 -0.97236949 0.0028845717 0.049366999
-0.085232936 0.42723414 -0.0050058519 0.25026274 -0.96627903 -0.060607091 0.13659893
-0.073177263 0.42716101 -0.0051556551 0.13180484 -0.98661387 -0.096024044 0.23241901
-0.06271182 0.42888629 -0.0051755989 -0.59252691 -0.80325592 -0.060760316 0.24863276
-0.05705994 0.4246437 -0.0056794472 -0.22177464 -0.974558 -0.032444742 0.20756194
-0.0033446825 0.42249388 -0.0034491119 0.10467719 -0.99074757 0.086382195 0.22639698
0.0076039508 0.42581978 -0.0057729469 -0.42170981 -0.90427786 0.066651776 0.26659513
0.013061191 0.42601734 -0.0057231304 -0.64739633 -0.75304008 -0.1175103 0.24716237
0.15553594 0.42561334 -0.0062036421 -0.97498822 0.21643205 0.050548825 0.048135586
-0.1329423 0.43512633 -0.0058033699 0.87990642 -0.44353798 -0.17040801 0.11926589
-0.12611745 0.43421116 -0.0007539966 0.98282284 -0.10288194 0.15321419 0.23470263
-0.071976058 0.43053108 -0.0044570593 0.57220888 -0.8187272 -0.047568928 0.28231776
-0.064488895 0.43242881 -0.003820711 -0.78710461 -0.60577106 -0.11622278 0.24226251
-0.054683197 0.43089959 -0.0055525228 -0.42257264 -0.90631717 0.0046383259 0.238024
-0.044881068 0.43089956 -0.0049932753 -0.27333465 -0.9590922 0.073690757 0.10942473
-0.033552453 0.43089956 -0.0048526609 -0.024126474 -0.99723715 0.070256844 0.11671436
-0.025786361 0.43089956 -0.0050090803 -0.063311689 -0.99545127 0.07119216 0.12456487
-0.01451993 0.43089959 -0.0033729083 0.21631035 -0.97029394 0.10834913 0.14624777
-0.0046853307 0.43089959 -0.0051356335 0.49305323 -0.86962402 -0.02554737 0.24158801
0.0071307025 0.43323639 -0.0042959577 -0.97633487 -0.18719 0.10830574 0.21351774
0.014263288 0.43036628 -0.002211791 -0.85854 -0.51107466 0.041373335 0.21148913
0.15553594 0.43569466 -0.0059138709 -0.99999946 0.00078390614 0.00066699291 2.1853904e-05
-0.12553874 0.44543993 -0.0050266553 0.84712243 -0.53117555 -0.015363134 0.058099136
-0.067492403 0.44670388 -0.0044558109 0.99966353 -0.02505789 0.006699706 0.16144891
0.0092370678 0.4446224 -0.0050562718 0.97649777 -0.21007574 -0.048168484 0.12628987
0.15553594 0.44507846 -0.005573622 -1 -3.3186927e-05 1.6398658e-06 0
-0.12100743 0.45046526 -0.0051094983 0.8313024 -0.55452961 -0.037859119 0.047609687
-0.11528526 0.45629755 -0.0052279565 0.70539123 -0.70879447 -0.0057948744 0.0083091361
-0.067641862 0.45478266 -0.0038801676 0.99574882 0.091981374 -0.0048799072 0.087854281
0.0097156102 0.45541555 -0.0048297071 -0.99538249 -0.0957307 0.0070165345 0.029023847
0.15553594 0.45545489 -0.003747236 -1 6.0504924e-05 -7.9253664e-07 1.2413008e-05
-0.11050931 0.46042159 -0.0050615445 0.64388245 -0.76512444 -0.00024798341 0.00098368234
-0.10422081 0.46544263 -0.0044104951 0.60158122 -0.79880959 -0.0018311467 0.0018727689
-0.098789014 0.46938831 -0.0038949426 0.55174297 -0.83398741 -0.0066856309 0.0022588414
-0.064973406 0.46584707 -0.0040662857 0.97813326 -0.20776337 -0.0094676837 0.21588558
0.0088089611 0.4645434 -0.0044341395 -0.97147369 -0.23656438 -0.016616529 0.054874215
0.15553594 0.46475732 -0.0053454228 -1 3.3836281e-05 5.2617088e-07 9.0331623e-06
-0.093170129 0.47264689 -0.004506642 0.46596169 -0.88477379 -0.0074191396 0.023248684
-0.085445315 0.47703251 -0.0032632619 0.18126099 -0.98341316 -0.0065613715 0.10922426
-0.079647548 0.47962993 -0.00026239548 0.22687115 -0.97392416 0.0010441408 0.10603312
-0.06168703 0.47249791 -0.0059821112 0.75823224 -0.64840418 0.068233311 0.19109607
-0.057882957 0.47745535 -0.0045709112 0.46388355 -0.88491935 -0.041591309 0.13734463
-0.0017934862 0.47921562 -0.0027480123 -0.49009615 -0.87010419 -0.052195594 0.20617869
0.0060136053 0.47446874 -0.0048586153 0.99949729 -0.031597178 0.0026123216 0.25146842
0.15553594 0.47598848 -0.0046221851 -0.98680252 -0.15315668 0.052571498 0.021571061
-0.075224303 0.48137304 -0.0055043558 0.20180359 -0.97908902 0.025692245 0.13023326
-0.064460136 0.48517472 -0.0044594537 0.30444825 -0.95222044 0.024240095 0.092853971
-0.054395542 0.48691994 -0.0061668153 0.34050861 -0.9402259 0.0053982548 0.059549831
-0.046138581 0.48704857 -0.00610153 0.32137868 -0.94694656 0.0028292418 0.034455426
-0.037196092 0.48969704 -0.0048093931 0.19098407 -0.98157179 0.0064843823 0.020253124
-0.022806404 0.48962641 -0.0042396528 -0.022403954 -0.99971473 -0.0082733771 0.048850864
-0.013413616 0.48680305 -0.0061300951 -0.1424119 -0.98978096 0.007252113 0.078427717
-0.0068232762 0.48311302 -0.0045784693 -0.22210777 -0.97417152 -0.040717576 0.13320287
0.0099477321 0.48738945 -0.0055152318 -0.015369718 -0.99732852 0.071411625 0.14763112
0.02874477 0.4895038 -0.0035320844 -0.12989162 -0.98990411 0.056727521 0.06230849
0.03540441 0.48786387 -0.0047260034 -0.12580436 -0.98623633 0.10729022 0.036412228
0.044996936 0.48696789 -0.0062357001 0.016417149 -0.98072565 0.19469893 0.036084864
0.056660499 0.48853564 -0.0058466699 0.18262801 -0.96314669 0.19747287 0.035952479
0.061334066 0.48960137 -0.0080613969 0.27127659 -0.93444657 0.23069142 0.025550244
0.15553594 0.48484203 -0.0052185617 -0.93665075 -0.34300143 0.070961043 0.052286409
-0.032658428 0.49016288 -0.0062220767 0.16126984 -0.98690456 -0.0033861441 0.022886306
-0.026331045 0.49104616 -0.0057217986 -0.046187095 -0.99864417 -0.024010332 0.041450493
-0.015031468 0.49388987 -0.0050855577 -0.060298488 -0.99811882 0.011084708 0.065506987
-0.0043545947 0.49650154 -0.0051014707 -0.014727453 -0.99988592 0.0033393051 0.085830726
0.0059289616 0.49749944 -0.0050638816 0.048799377 -0.99876285 0.0095654214 0.10901894
0.014488981 0.49615079 -0.0044787689 0.028585469 -0.99936682 -0.021186167 0.11796142
0.023250161 0.49136123 -0.004686594 -0.082178943 -0.99366045 0.076717824 0.089472622
0.065636471 0.49184465 -0.0047830725 0.35583264 -0.92907941 0.10096785 0.025105897
0.075076982 0.49699524 -0.0063652247 0.26786992 -0.94988728 0.16112055 0.013658174
0.08520332 0.49935618 -0.0048901131 0.17269799 -0.97582185 0.1339667 0.011619556
0.094834886 0.49919975 -0.0060783718 0.057192117 -0.9863385 0.15448451 0.010040072
0.10423965 0.49979207 -0.0015794878 0.0069640772 -0.99995565 0.0063493843 0.013035725
0.11421381 0.49952018 -0.0036445188 -0.0041307495 -0.99158818 0.12936743 0.013677709
0.12477224 0.49933133 -0.0050792811 0.0031676819 -0.98424703 0.17677046 0.0089515904
0.13477327 0.49922955 -0.0058515128 -0.16233812 -0.97523803 0.15019031 0.029359648
0.14530279 0.49925104 -0.0056885267 -0.49123672 -0.86163521 0.12755878 0.066920213
0.15548804 0.49558294 -0.0042833937 -0.76115334 -0.64437288 0.073682591 0.055214759
-0.084564582 -0.49613735 0.0060337149 0.83074456 0.54225159 -0.12580353 0.055200469
-0.075784594 -0.5 0.0068943398 0.56438196 0.8198669 -0.096390702 0.064793147
-0.064549804 -0.5 0.0045146914 0.22702731 0.97015893 -0.085148215 0.038199499
-0.054098245 -0.5 0.0048872628 -0 1 -0 0
-0.043024685 -0.5 0.0058742687 -0 1 -0 0
-0.036136273 -0.5 0.0048697335 -0 1 -0 0
-0.0251817 -0.5 0.0055319201 -0 1 -0 0
-0.014199644 -0.5 0.0058859927 -0 1 -0 0
-0.003597582 -0.5 0.0050300807 -0.011250087 0.99987745 -0.010885987 0.00050321443
0.0059389668 -0.5 0.0067990837 -0.20258899 0.97498935 -0.091396913 0.028787863
0.014960764 -0.5 0.0049655423 -0.40012059 0.91304904 -0.079024673 0.061325792
0.026490061 -0.4976145 0.0049208719 -0.78619415 0.61708301 -0.03327762 0.062502533
-0.086851977 -0.48460594 0.004247481 0.94730473 0.3101213 -0.080240488 0.048593313
0.028395977 -0.48657408 0.0064522265 -0.92546463 0.35260192 -0.13851781 0.058153048
-0.086668976 -0.47467977 0.0056375065 0.9899767 0.081483595 -0.11535428 0.025013559
0.028443033 -0.47490829 0.0060948306 -0.98860747 0.088129178 -0.12201907 0.02505647
-0.086663857 -0.46429738 0.0056762481 0.99096984 -0.0045066634 -0.13400935 0.021795252
0.02860789 -0.46447131 0.0048058778 -0.99543881 0.01718179 -0.093841992 0.020940091
-0.086507544 -0.45471224 0.0068636546 0.98203009 0.01511923 -0.18811803 0.02101277
0.028483216 -0.45667303 0.0057895896 -0.99350905 -0.018076997 -0.11230768 0.018090537
-0.086696982 -0.44383815 0.0054247244 0.99737108 0.015269977 -0.070835873 0.017389826
0.028437722 -0.44376394 0.0061351336 -0.99365616 0.0081435116 -0.11216578 0.02039586
-0.086613111 -0.43434253 0.006061791 0.99132156 -0.0075608608 -0.1312418 0.021032739
0.028635008 -0.4362027 0.0046365955 -0.99467731 -0.033142462 -0.097563848 0.020946767
-0.08661864 -0.42592204 0.0059815762 0.99322659 0.012158363 -0.1155558 0.023955056
0.028568996 -0.42525527 0.0051121581 -0.99593759 0.0052563623 -0.08989232 0.021321945
-0.086573407 -0.41573822 0.0063633523 0.99159467 -0.0099291541 -0.12900141 0.021286737
0.028573357 -0.41573736 0.0051048999 -0.9940967 -0.011656179 -0.1078696 0.020703558
-0.086807236 -0.40516552 0.0045872862 0.99548978 0.013657208 -0.09388078 0.017237926
0.028646018 -0.4060578 0.0045529921 -0.99582779 -0.009756323 -0.090730317 0.022353968
-0.086697325 -0.39611202 0.0054221037 0.98816335 -0.0029065944 -0.15337819 0.020519804
0.028479714 -0.3957881 0.0058162068 -0.99316031 -0.037763573 -0.11048389 0.020602809
-0.086679928 -0.38434708 0.005554249 0.99125206 0.001915322 -0.13196898 0.014524572
0.028686482 -0.38478819 0.0042034863 -0.99547541 0.021613322 -0.092528656 0.021732094
-0.086889133 -0.37539762 0.0039651645 0.99531645 -0.017932357 -0.094992518 0.01581548
0.02849729 -0.37418917 0.0056826752 -0.99364161 0.0086636404 -0.11225552 0.021600761
-0.086857319 -0.36523077 0.0042068618 0.99695379 0.012268091 -0.077023782 0.015621329
0.028445348 -0.36458388 0.0060772193 -0.99357313 -0.014802142 -0.11221978 0.021140337
-0.086455375 -0.35598204 0.0072230492 0.98597205 -0.0076080407 -0.16673687 0.022842292
0.028475679 -0.35503048 0.0058468501 -0.98868924 -0.012146359 -0.1494862 0.017843621
-0.086773291 -0.34519386 0.0048115076 0.99596095 0.018296935 -0.087903768 0.017619552
0.028787702 -0.34517339 0.0034768074 -0.99540621 -0.0296579 -0.091032133 0.021577159
-0.086692601 -0.33491892 0.005458015 0.99480057 -0.0098666456 -0.10136318 0.018621514
0.028606165 -0.33430398 0.0048205233 -0.99373472 0.0085949097 -0.11143308 0.022077093
-0.086818404 -0.32605618 0.004482857 0.99609584 -0.0073160329 -0.087975025 0.019035801
0.028671235 -0.32591024 0.0043614609 -0.99568713 -0.018522102 -0.090906851 0.022373155
-0.086806282 -0.31394625 0.0045944648 0.99613839 0.025862768 -0.083901554 0.018755119
0.028665688 -0.31500807 0.0043854029 -0.99602318 0.0017475818 -0.08907713 0.022467908
-0.086607866 -0.30442259 0.006101639 0.99352491 0.0092520369 -0.11323772 0.023097625
0.028672064 -0.30378279 0.0043551419 -0.99252206 0.024890417 -0.11950076 0.019765673
-0.086895451 -0.294615 0.0039171386 0.99451965 0.025364321 -0.10142668 0.018074438
0.028473718 -0.29418314 0.0058393166 -0.97923559 -0.013811377 -0.2022545 0.018560819
-0.08666949 -0.28569219 0.0056255371 0.98984754 -0.018019605 -0.14098656 0.022499615
0.028538182 -0.28500152 0.0053720833 -0.99392176 0.010645585 -0.10957329 0.020478383
-0.086732537 -0.27452213 0.0051546977 0.9953137 0.00034187961 -0.096698716 0.017306885
0.028845236 -0.27551502 0.0029981001 -0.99553424 0.0074263993 -0.094108753 0.021668721
-0.086860798 -0.26580489 0.0040742941 0.99671006 0.0049829842 -0.080895506 0.017704444
0.028755633 -0.2638936 0.0036725767 -0.99484783 0.03150928 -0.096357927 0.021711124
-0.086684927 -0.25478923 0.005516293 0.99318659 -0.00045607518 -0.11653442 0.022946868
0.028483948 -0.25578776 0.0057840366 -0.98823225 -0.0097988648 -0.1526469 0.018486965
-0.08659789 -0.2452984 0.0061773546 0.98870808 -0.0081409635 -0.14963283 0.023986313
0.02848552 -0.24593516 0.0057721063 -0.98881483 -0.021696704 -0.14756182 0.018851129
-0.086800747 -0.23666464 0.004613108 0.99361211 -0.025344618 -0.10996687 0.02091644
0.02864884 -0.23396181 0.0045315726 -0.99436623 0.0022627057 -0.10597476 0.021079274
-0.086692438 -0.22443977 0.0054593128 0.99718177 -8.423502e-05 -0.07502234 0.016193416
0.028360654 -0.22688445 0.0067205341 -0.98082364 0.0008533767 -0.1948953 0.014903439
-0.086885214 -0.21558365 0.0039394055 0.99555594 -0.015444515 -0.092897259 0.016631356
0.028455747 -0.21425693 0.0059982063 -0.99027145 0.012413454 -0.13859415 0.019506101
-0.086732134 -0.20576386 0.0051577836 0.99593407 0.023447648 -0.086980581 0.017890142
0.028709708 -0.20541134 0.0040692301 -0.9962582 -0.021787863 -0.083634995 0.022662116
-0.086851664 -0.19394499 0.0041643423 0.99652994 0.030834829 -0.077312827 0.016793748
0.028602293 -0.19565289 0.0048618028 -0.99545568 -0.00093787775 -0.095221557 0.021880617
-0.086509667 -0.1853839 0.0068474864 0.98527163 0.012116213 -0.17056689 0.018447069
0.028684227 -0.18546434 0.0042424235 -0.99534118 -0.016658597 -0.094965152 0.021191075
-0.086595096 -0.17393284 0.0061985431 0.98925877 0.00065689179 -0.14617351 0.021716565
0.028525816 -0.17506315 0.0054660025 -0.99595863 -0.0047864639 -0.089685276 0.020812666
-0.086738154 -0.16566908 0.0051119472 0.9937945 -0.0053087496 -0.11110488 0.018274443
0.028632928 -0.16399433 0.0046524215 -0.99561632 0.022719013 -0.090729892 0.02161191
-0.086765572 -0.15584089 0.0049037384 0.99671996 -0.023494655 -0.077442557 0.018134767
0.028555 -0.15415002 0.0052443123 -0.99476975 0.010789514 -0.10157114 0.020390984
-0.08686889 -0.1456733 0.0041189892 0.99653089 -0.023765624 -0.079758056 0.019280206
0.028772129 -0.14382988 0.0035950812 -0.9964152 0.022835797 -0.081456773 0.023141619
-0.086630732 -0.13342942 0.0059279376 0.99241042 0.0030333593 -0.12293211 0.023152065
0.028618699 -0.1368176 0.0047604889 -0.99449819 -0.001373513 -0.10474484 0.021417445
-0.08654739 -0.12490367 0.0065609622 0.98715878 -0.014200616 -0.15910961 0.024490111
0.028627383 -0.12418528 0.0046945079 -0.99356145 -0.030853551 -0.1090126 0.021064032
-0.086585023 -0.11484185 0.0062751006 0.98751599 0.030393833 -0.15455891 0.026035838
0.028455509 -0.11413856 0.0060000252 -0.98643124 -0.017855085 -0.16320112 0.019385511
-0.086557068 -0.10470605 0.0064874403 0.9825772 0.0071292375 -0.18571782 0.0210985
0.028493954 -0.10447408 0.0057080206 -0.98992395 0.019726109 -0.14021912 0.01905454
-0.086726665 -0.094850361 0.0051572067 0.99665946 0.011084946 -0.080913953 0.018826628
0.028610585 -0.0940165 0.0048221275 -0.99555928 0.024021272 -0.091019996 0.023092732
-0.086629614 -0.085253656 0.0059363968 0.99619007 -0.019347632 -0.085034892 0.019927725
0.028456358 -0.085782103 0.0059935898 -0.98919278 -0.001754966 -0.14661026 0.020227904
-0.086871199 -0.075570099 0.0041013854 0.99620366 -0.012356464 -0.086170979 0.01930798
0.028500268 -0.075586908 0.0056600496 -0.98919827 -0.028593266 -0.14376788 0.018667635
-0.086703181 -0.065538071 0.0053776489 0.99164945 -0.018028585 -0.12769653 0.020912562
0.028527305 -0.065359794 0.0054547149 -0.9916414 -0.024747498 -0.12662944 0.01848384
-0.086699709 -0.054405466 0.0054040039 0.9941569 0.029854538 -0.10373434 0.016894763
0.02863883 -0.055131175 0.0046048267 -0.99608099 0.019887112 -0.086181074 0.02271276
-0.08669322 -0.04558735 0.0054533225 0.99190211 0.026763704 -0.12415263 0.016024204
0.028663708 -0.043852393 0.0044186371 -0.99391198 0.013434596 -0.10935445 0.019308724
-0.087019831 -0.035817459 0.0029724503 0.99245703 -0.025782669 -0.11985127 0.014765524
0.028411755 -0.034519818 0.0063323858 -0.99187636 -0.015499365 -0.12625803 0.021794578
-0.086934611 -0.025695698 0.0035582602 0.9947378 -0.019311484 -0.10061672 0.016698739
0.028527264 -0.025911519 0.005455018 -0.99342811 -0.0098171635 -0.1140357 0.019180875
-0.086676948 -0.015640439 0.0055627041 0.99073011 -0.058137193 -0.12277596 0.026637964
0.028739739 -0.014054795 0.0038411079 -0.99268371 -0.071572885 -0.097243585 0.030543823
-0.086817943 -0.005257051 0.0044824854 0.98211145 -0.17534572 -0.06863606 0.073335893
0.028356256 -0.0034625502 0.0067539304 -0.98930138 -0.097992271 -0.10807522 0.094149299
-0.084701195 0.0050543984 0.005612019 0.99217701 0.059312049 -0.10984933 0.12296163
-0.074859567 0.0052108462 0.0056611593 0.99314982 0.014626185 -0.11592925 0.20514119
-0.064652793 0.0052108462 0.0036928973 0.052149851 -0.99860907 -0.0077609532 0.068587385
-0.055067498 0.0052108462 0.0042773318 -0.0020217486 -0.99999613 0.0019375123 2.3668512e-05
-0.04438436 0.0052108462 0.0056066806 4.7709378e-11 -1 -1.9361567e-08 0
-0.034579515 0.0052108462 0.0046485825 -6.7292106e-08 -1 -1.6604291e-08 0
-0.024384972 0.0052108462 0.0046108547 8.5065799e-10 -1 2.9503962e-08 0
-0.014642743 0.0052108462 0.0051126354 1.4344541e-10 -1 -8.7130818e-09 0
-0.0062211645 0.0052108462 0.0054349331 0.0014893167 -0.9999975 0.0016485864 1.1744321e-05
0.0051412187 0.0052108462 0.0049643377 0.0050681592 -0.99998629 0.0013172043 0.055889379
0.014751658 0.0052108462 0.005076875 -0.085778415 -0.9916985 0.0957928 0.22732051
0.025316162 0.0048426297 0.0047817994 -0.99385065 0.022590352 -0.10840031 0.12023318
-0.08696045 0.012856476 0.0051304973 0.98445386 0.12478559 -0.12360875 0.083135523
0.028865235 0.01538181 0.0051565701 -0.97888905 0.175173 -0.1053117 0.098843515
-0.087494798 0.026291305 0.003060332 0.99174476 0.10289322 -0.076519616 0.020854346
0.029222813 0.024497485 0.0037184854 -0.99215353 0.10067093 -0.074138813 0.031412944
-0.087178677 0.03336101 0.0057903691 0.99239969 -0.015159122 -0.12211896 0.019673452
0.029119957 0.03665613 0.004873971 -0.99475521 -0.0020521199 -0.10226378 0.021682702
-0.087274849 0.04395831 0.0044241943 0.99668497 -0.020123756 -0.07883063 0.017339062
0.029105362 0.045508668 0.0043145418 -0.99090022 -0.012016699 -0.13406108 0.018409759
-0.086956449 0.054508749 0.0050440743 0.99561083 -0.042962071 -0.083146811 0.016395397
0.028701207 0.054952934 0.0056118672 -0.99093157 -0.021969222 -0.13255972 0.019440217
-0.086294137 0.065682679 0.0069725141 0.98513436 -0.044410679 -0.16594595 0.02380196
0.028383143 0.065493569 0.0050990731 -0.99189389 -0.04869293 -0.11736882 0.018297894
-0.086261347 0.074745126 0.0036211009 0.99556017 -0.03734355 -0.086402476 0.016909603
0.028003177 0.075699754 0.0038671722 -0.99494624 -0.04400092 -0.090254135 0.020831091
-0.085554779 0.084567875 0.0040914398 0.99290073 -0.043799497 -0.11058832 0.014842432
0.027263882 0.084828176 0.0048968093 -0.99156356 -0.080008142 -0.10198227 0.019936135
-0.084473372 0.094670542 0.0063500698 0.98337501 -0.078681976 -0.16365433 0.017353568
0.026619503 0.094921075 0.0037174853 -0.98767167 -0.089213803 -0.12862951 0.018353708
-0.083782747 0.10478925 0.0043550613 0.98477197 -0.091260694 -0.147972 0.01986281
0.025458358 0.10461495 0.0057051368 -0.98310578 -0.11383083 -0.14333732 0.016271539
-0.082529731 0.11381062 0.0064219451 0.97465652 -0.11463998 -0.19209959 0.023536636
0.024500204 0.11537074 0.0040560476 -0.98766929 -0.10621525 -0.11501153 0.026264567
-0.081320696 0.12411843 0.0059775594 0.97368425 -0.14691818 -0.17422409 0.026978729
0.023189859 0.12500094 0.0049235672 -0.98008269 -0.10701358 -0.16728996 0.025336402
-0.080417618 0.13328959 0.003649903 0.97699523 -0.18259525 -0.11017857 0.0319506
-0.079490073 0.13667329 0.0066500101 0.97088057 -0.15854906 -0.1795916 0.026575463
0.021967173 0.13518195 0.003322666 -0.98752427 -0.13250025 -0.085085429 0.03699616
-0.078691661 0.14420021 0.0043148752 0.97619659 -0.18732762 -0.10930957 0.029028293
0.019539706 0.14732456 0.0069993027 -0.96447098 -0.1813363 -0.19212727 0.028862244
0.020654878 0.14430831 0.0032026174 -0.97431999 -0.18557777 -0.12752022 0.03209288
-0.076674767 0.15518735 0.0051899166 0.97550088 -0.18732409 -0.11535873 0.029388823
0.01821335 0.15455982 0.0074695512 -0.95991379 -0.18618807 -0.20952234 0.02978052
-0.075140812 0.16401371 0.0052899863 0.96757215 -0.19240472 -0.16365938 0.037481382
0.016805081 0.16422102 0.0055597089 -0.9734475 -0.20213869 -0.10742426 0.028669551
-0.073137894 0.17416047 0.0046128314 0.96965575 -0.15912291 -0.18560107 0.05693759
0.014919056 0.17536655 0.004092366 -0.96100652 -0.2457761 -0.1267305 0.054303844
-0.071223877 0.18641526 0.0053585395 0.96977401 -0.13300611 -0.20456742 0.057993155
0.012971992 0.1854825 0.0063410155 -0.9613471 -0.14935052 -0.23131427 0.058638807
-0.07091862 0.19523139 0.0037507815 0.98712522 -0.07345093 -0.14208718 0.057478305
-0.069077186 0.19559887 0.0097687319 0.90159076 -0.079007462 -0.42531389 0.054938085
0.012322191 0.19370948 0.0059910524 -0.96623188 -0.14130263 -0.21547519 0.046989124
-0.070306085 0.20427993 0.0027040876 0.98935968 -0.11227458 -0.092529379 0.071609594
-0.069407649 0.20609151 0.0066422825 0.95072937 -0.13059723 -0.28117275 0.073739879
0.011109929 0.20579576 0.0064042453 -0.96179271 -0.045195002 -0.27002269 0.061786026
-0.068826869 0.21547945 0.0053882343 0.9355281 -0.14105974 -0.32386631 0.080273524
0.0095321005 0.21688743 0.0088341767 -0.87420279 -0.023850309 -0.48497489 0.055712663
0.01116335 0.21413068 0.004434533 -0.98073643 -0.012640635 -0.19492666 0.063940346
-0.068661883 0.22466438 0.0033747805 0.98042446 -0.1176876 -0.15785286 0.060753178
0.0094860783 0.22667955 0.0073081078 -0.88663828 -0.052477345 -0.4594765 0.066711098
0.010770797 0.22470295 0.0020661312 -0.99282569 -0.070384182 -0.096660741 0.10011727
-0.067866735 0.23495795 0.0040319189 0.95408535 -0.074153729 -0.29021078 0.082061552
0.0093299244 0.23603341 0.006121716 -0.92607099 -0.11895053 -0.35811058 0.094985813
0.010299967 0.23570764 0.00086399232 -0.99936074 -0.016542021 -0.031694103 0.096129358
-0.067504339 0.24515219 0.0035566054 0.96151209 -0.1002532 -0.25581974 0.091681354
0.0089021344 0.24435173 0.0054323897 -0.97443545 -0.082965329 -0.20878763 0.083465584
-0.066858865 0.25417462 0.0045423121 0.95759177 -0.028826071 -0.28668308 0.092231542
0.0084497221 0.25517547 0.0051093157 -0.96192098 -0.080156259 -0.26131031 0.097475044
-0.066113807 0.26447538 0.0059156246 0.96250898 0.0030837634 -0.27123216 0.085265696
0.0081088329 0.26549408 0.0051616849 -0.96570969 -0.023808949 -0.2585302 0.10090134
-0.065738313 0.27571401 0.0058471491 0.97393888 -0.062912844 -0.21791054 0.087199584
0.0078536365 0.27412528 0.005119056 -0.96497315 -0.033590622 -0.26018947 0.097358651
-0.066223681 0.28367269 0.0032760752 0.97746474 -0.086584166 -0.19252503 0.077447563
0.0076287896 0.28447941 0.0053264722 -0.96647143 -0.068387069 -0.24750002 0.094919041
-0.064886838 0.29414567 0.0074016489 0.97200799 -0.058700163 -0.22749659 0.077471323
0.0071864435 0.29472932 0.0061841258 -0.970981 -0.013127323 -0.23879597 0.093999811
-0.065701991 0.30672169 0.0044836863 0.96423334 -0.0030330801 -0.26503739 0.074496217
0.0071095387 0.30342183 0.0063794483 -0.96811873 -0.062375825 -0.24260139 0.092571788
-0.065454163 0.31651336 0.005742935 0.96316397 0.052774966 -0.26368535 0.070537791
0.0074722981 0.3145965 0.0053189397 -0.97285581 0.017790791 -0.23072721 0.096286781
-0.065919764 0.32428497 0.004489304 0.96329647 -0.0052990988 -0.26838765 0.084514543
0.0074543655 0.32486627 0.00581476 -0.97348493 -0.0075883395 -0.22862518 0.10181748
-0.0665185 0.33453977 0.0030521972 0.99057692 0.024596779 -0.13473085 0.095088549
0.0079780854 0.33624843 0.0049974713 0.96921456 -0.049182177 0.2412557 0.10262743
-0.066674545 0.34502029 0.0036856807 0.97111917 0.031833563 -0.2364618 0.082828537
0.0079302434 0.34430283 0.0056308238 -0.96597147 0.018653547 -0.2579751 0.093243264
-0.15338913 0.35419232 0.0063922163 0.98829299 -0.15224925 -0.0098557593 0.03944594
-0.066394754 0.35562342 0.0058976486 0.96224558 0.087099902 -0.25787032 0.083907582
0.0083065806 0.35596785 0.005963508 0.9503454 -0.059472226 0.3054615 0.1112385
-0.15393734 0.36623949 0.005943737 0.96937042 -0.24446368 -0.023630099 0.057487428
-0.14770395 0.36499432 0.0069722249 0.97129911 -0.23759034 -0.011353433 0.059937641
-0.0672241 0.36442664 0.004389788 0.96459049 0.042754289 -0.26026398 0.084636465
0.0089860484 0.36543354 0.0046838108 0.95020175 -0.096680306 0.29625919 0.10249384
-0.15443581 0.37587318 0.0070407046 0.97896844 -0.20321915 0.017968219 0.068213709
-0.14575085 0.3750644 0.0059761768 0.95895255 -0.28138775 -0.035085134 0.077742323
-0.067854151 0.37539896 0.0041570421 0.97488791 0.054579061 -0.21590452 0.088698894
0.0088454448 0.37268609 0.0071295053 0.8552627 -0.054532804 0.51531726 0.062247511
0.010192847 0.37535065 0.0020358074 0.98910111 -0.089710176 0.11675225 0.094475061
-0.15242937 0.38532364 0.0060538892 0.94882023 -0.31581518 0.0010232315 0.10669278
-0.14434879 0.38643083 0.0050956178 0.90139282 -0.42848772 -0.06236393 0.11882561
-0.13730831 0.38666075 0.0073625958 0.82785004 -0.55538476 -0.078816786 0.1125619
-0.068378761 0.38443217 0.0044934275 0.9625622 0.10983995 -0.24780887 0.08083716
0.0094883004 0.38461587 0.0074515347 0.90883362 -0.087980516 0.40777564 0.098104037
0.010589184 0.38590243 0.0035439865 0.9750461 -0.12437527 0.1838911 0.095343947
-0.151318 0.39434633 0.0063863429 0.95646721 -0.28834349 0.04503984 0.13249728
-0.14521331 0.39537752 0.0050791125 0.9171105 -0.38036937 -0.11927853 0.15557897
-0.13453403 0.3943094 0.0059471307 0.74443865 -0.6522429 -0.14279436 0.13541199
-0.12780686 0.39936435 0.0071955398 0.73527247 -0.66540915 -0.12886024 0.16578767
-0.068674609 0.39320943 0.0054990239 0.94526434 0.092507981 -0.31291774 0.077591926
0.0096009281 0.39463991 0.0088994903 0.85011142 -0.18167232 0.49427301 0.13240004
0.011149652 0.39587972 0.0038479185 0.97172481 -0.18944108 0.14093599 0.14584017
-0.15015164 0.40001956 0.0066225249 0.95698524 -0.290126 -0.0024811153 0.14502431
-0.14573087 0.40460691 0.005748482 0.94684863 -0.31559601 -0.062263656 0.17203018
-0.13489419 0.4058632 0.0050790925 0.87170011 -0.48918653 -0.028904183 0.1972706
-0.12541653 0.40502259 0.0058301929 0.65852129 -0.71282011 -0.24132381 0.2175923
-0.11850773 0.40907532 0.0066999379 0.47195569 -0.86142534 -0.18762776 0.20754609
-0.070388325 0.40733775 0.0028086184 -0.96215641 -0.20548579 0.17897099 0.21694367
-0.069097817 0.40353924 0.0073827794 0.88943279 0.10715904 -0.44432676 0.12737329
-0.014466465 0.40881598 0.0055345874 -0.40221778 -0.88679028 -0.22764854 0.22627881
-0.0028432487 0.40597287 0.0052009672 -0.92084616 -0.059396587 -0.38537574 0.24558708
0.0052455571 0.40505421 0.0037967833 0.97962391 -0.12538514 0.15689339 0.23018987
0.012405021 0.40536487 0.0046527036 0.89421433 -0.31286979 0.32014564 0.25457418
0.068432987 0.40981916 0.0056529096 -0.30216894 -0.94019985 0.15722014 0.013487542
0.075383276 0.40543792 0.0052655381 -0.2740221 -0.95538104 0.11026809 0.014876188
0.086591758 0.4033725 0.0040135854 -0.1569791 -0.98569447 0.061351996 0.01158638
0.094845906 0.40336785 0.0039783455 -0.061276801 -0.99528092 0.075240612 0.010999366
0.10646733 0.40345436 0.0046359901 -0.012407678 -0.99612057 0.08711914 0.01131875
0.11517411 0.40341875 0.0043653389 -5.781951e-05 -0.99748504 0.070877165 0.012011852
0.12498458 0.4033877 0.0041291681 -0.0056939083 -0.99766684 0.06803257 0.012072351
0.13464437 0.40334487 0.0038039659 0.14490233 -0.98718941 0.066786051 0.029420104
0.14437856 0.40365613 0.0061679194 0.3097533 -0.94614518 0.094139829 0.057864349
0.15420586 0.4050419 0.0048136958 0.5895341 -0.80572599 0.057052758 0.065739408
-0.1437382 0.41678801 0.0076523791 0.93261766 -0.34770301 0.096575424 0.18880239
-0.1343143 0.41362232 0.0050791102 0.90287191 -0.41440201 0.11442573 0.2414827
-0.12461187 0.41675597 0.0040745838 0.42879912 -0.81957912 0.38002813 0.30729455
-0.11381197 0.4149766 0.0044749593 0.3590205 -0.91831559 -0.16673559 0.22752351
-0.10523272 0.41805407 0.0045500863 0.38167191 -0.91318053 -0.14292595 0.10773672
-0.071074352 0.41570315 0.0028944518 -0.65732539 -0.73235053 0.17772453 0.25318658
-0.069582433 0.41243997 0.008017648 -0.90644258 -0.36244494 0.21678445 0.24163122
-0.050862245 0.41935778 0.0062190685 0.089597903 -0.97543281 -0.20125383 0.22020973
-0.044736642 0.41602102 0.0032340023 0.02305821 -0.99973381 0.00074675924 0.19974527
-0.034618512 0.41314188 0.0045131287 -0.10592309 -0.98069018 -0.16439952 0.19732392
-0.026451241 0.41195807 0.0047328314 -0.0091783023 -0.9899742 -0.14094976 0.20194736
-0.015400019 0.41497454 0.0044212905 -0.03943133 -0.9940446 -0.10159002 0.18482077
-0.0085419761 0.4184429 0.0039437516 -0.10082478 -0.96955615 -0.22314845 0.19385591
0.0099477321 0.4140639 0.0045013903 -0.98840278 -0.10375293 -0.11088404 0.26760757
0.01236472 0.41468036 0.0050535048 -0.39815542 -0.88166159 0.2532689 0.26949844
0.024855364 0.4121964 0.0053760963 0.54133278 -0.81483495 0.20737112 0.25065938
0.035848845 0.41501185 0.0041667633 0.036054134 -0.99274254 0.11472715 0.064859286
0.044519037 0.41579261 0.005600777 -0.044271108 -0.989788 0.13549791 0.033823371
0.055842347 0.41427982 0.0047006076 -0.27340111 -0.95555872 0.1102698 0.024134403
0.063942544 0.41189757 0.0059183659 -0.31517187 -0.93647712 0.15387425 0.022743061
0.15553594 0.41468114 0.0046471581 0.87392443 -0.48382291 0.046598639 0.068881303
-0.14019355 0.42435834 0.0098637249 0.9699502 -0.21590534 0.11216728 0.20535836
-0.13498396 0.42570633 0.004816988 0.97763717 -0.18148929 0.10624094 0.23667021
-0.12509941 0.42370698 0.0026642401 0.52011538 0.017760919 0.85391128 0.28652632
-0.11662185 0.42428502 0.00060871855 -0.23498467 -0.11813477 -0.9647935 0.28093439
-0.10168263 0.42008704 0.00089109316 0.28339595 -0.95892352 -0.01234462 0.073649444
-0.094510071 0.42364752 0.0051223822 0.19797744 -0.97985691 0.026180835 0.068772011
-0.085387595 0.42718786 0.0041696406 0.24382085 -0.96215183 0.12171838 0.15677601
-0.072911583 0.42619863 0.004901526 0.042172451 -0.99584436 0.080718614 0.24057078
-0.062780634 0.42851096 0.0062519992 -0.72615743 -0.68625444 0.04183564 0.24835013
-0.056965031 0.42447776 0.0057512959 -0.19702567 -0.98004746 0.026227174 0.19295748
-0.0038015959 0.42210448 0.0072895666 0.1109117 -0.98776656 -0.10961678 0.24360269
0.0061137546 0.42652521 0.0041104038 -0.95789617 -0.26557475 -0.10910995 0.27898702
0.013315301 0.4239977 0.0044365223 -0.68116474 -0.73175794 0.023343006 0.22892438
0.15553594 0.42344049 0.0030038648 -0.9677316 0.25077075 -0.024689937 0.043343168
-0.13306653 0.4343659 0.0053562974 0.91249567 -0.37803242 0.15634292 0.1385894
-0.12548351 0.43402424 0.00083163346 0.94306469 -0.038258493 0.33040184 0.23498724
-0.073482543 0.43028677 0.0061388868 0.92497492 -0.3597185 0.12257224 0.25320402
-0.065916561 0.43212903 0.0047844909 -0.54365605 -0.82130063 0.17292581 0.2465886
-0.053692423 0.43089956 0.0055942284 -0.2875931 -0.95762146 -0.015853474 0.19442585
-0.04506018 0.43089959 0.0039989799 -0.23965381 -0.97065789 -0.019729283 0.11176644
-0.034558993 0.43089959 0.0047330381 -0.091394976 -0.99358588 -0.066588156 0.11208332
-0.025295947 0.43089959 0.0041218032 -0.040556207 -0.99765033 -0.05521832 0.12535414
-0.015068012 0.43089956 0.0048837932 0.28062612 -0.95974338 -0.01190641 0.15760103
-0.0060274424 0.43089959 0.0036305862 0.32706708 -0.94392049 0.045181617 0.21948592
0.0070044328 0.43348956 0.0049651796 -0.99412358 -0.038948499 0.10100131 0.23080799
0.012596317 0.43065605 0.0035272178 -0.87166327 -0.48651323 0.059229434 0.22138172
0.15553594 0.43594238 0.0034562256 -1 2.435649e-09 -5.7712896e-08 8.7821945e-06
-0.12595284 0.44495577 0.0064882054 0.84443593 -0.52871305 0.085967399 0.056184631
-0.06721247 0.44465446 0.0040124771 0.99960589 -0.027648216 0.0048493054 0.17109944
0.0093497531 0.44509223 0.0049049053 0.98099959 -0.18932818 0.04236272 0.1025586
0.15553594 0.44523597 0.0050937636 -1 -7.7376419e-05 1.4690372e-06 0
-0.12031684 0.45121408 0.0043473947 0.81513345 -0.57926852 0.002342406 0.047100719
-0.11643456 0.45528731 0.0050275945 0.71553433 -0.69857424 -0.0021656663 0.009653355
-0.067550994 0.45543355 0.0045094886 0.99709326 0.075651363 0.0090483669 0.084355325
0.0096171871 0.45475569 0.0041581579 -0.99879825 -0.047810037 0.01078102 0.036740735
0.15553594 0.45561457 0.0051766341 -1 6.5464334e-10 -2.3877732e-07 1.2279053e-05
-0.1100833 0.4607631 0.0047464203 0.64063364 -0.7678467 -7.938905e-05 0.00096883869
-0.1043565 0.46534875 0.0062675732 0.58922768 -0.80796689 0.00053731864 0.002156677
-0.098497137 0.46955758 0.0052360948 0.55102426 -0.83448333 0.0031309514 0.002419967
-0.065423042 0.46474063 0.0040955641 0.9988414 -0.037100885 0.030645102 0.18078287
0.0084165763 0.4638826 0.0045629605 -0.97256947 -0.23104241 -0.026982281 0.046099529
0.15553594 0.46718371 0.0055092149 -0.99998373 -0.0052869441 -0.0021417479 5.3821877e-05
-0.093363412 0.47253484 0.0057337037 0.47551072 -0.8796165 0.012822033 0.024017597
-0.084793814 0.47724435 0.0050286329 0.13259272 -0.9905616 0.034739144 0.12711625
-0.061475981 0.47275671 0.0070697628 0.74346298 -0.6681487 0.028986026 0.18948138
-0.056761466 0.47862014 0.0045619933 0.43937141 -0.89681774 -0.051677901 0.11774758
-0.0013300875 0.47860727 0.0045223548 -0.54924285 -0.83313638 0.06493175 0.21325782
0.0067519029 0.47406381 0.0060618506 -0.99351782 -0.018614691 0.11214191 0.21122999
0.15553594 0.47639176 0.0048752162 -0.98753065 -0.15739803 -0.0030280033 0.018673668
-0.075729758 0.48117384 0.0044168211 0.14901906 -0.9879719 -0.041289438 0.135291
-0.065751575 0.48485944 0.0048483587 0.32579437 -0.94526583 -0.018179055 0.1279498
-0.053795476 0.48511922 0.0052150134 0.36044404 -0.93248636 -0.023435969 0.066006787
-0.044693239 0.48784524 0.004452751 0.29094887 -0.95641112 -0.025028683 0.024940008
-0.03722354 0.48973656 0.0060536768 0.19652653 -0.98049849 -5.533026e-05 0.017752796
-0.023045655 0.48965794 0.0050160415 -0.054565229 -0.99850941 0.0012690939 0.042418301
-0.013297304 0.48676845 0.0034394767 -0.12578863 -0.99183327 -0.021067409 0.076796949
-0.0055387076 0.48213217 0.004198527 -0.23518284 -0.96763247 0.091523476 0.14242525
0.0099477321 0.48459089 0.0058547626 -0.045398969 -0.99581486 -0.079319715 0.18458721
0.029503524 0.48920205 0.0041003241 -0.11772998 -0.99031585 -0.073581398 0.066087157
0.035095867 0.48780242 0.0058734864 -0.13311243 -0.98447222 -0.11443553 0.037673429
0.045701176 0.48707247 0.0057667396 0.028150184 -0.99193943 -0.12354691 0.034051776
0.055282153 0.48851451 0.0043647983 0.19272287 -0.97113794 -0.14053138 0.032886773
0.061508123 0.48981914 0.0068024332 0.28800002 -0.93820965 -0.1918814 0.022302097
0.15553594 0.48374754 0.006810681 -0.93383831 -0.3554115 -0.040357523 0.060437039
-0.032316491 0.49018916 0.0042834384 0.094878241 -0.99547619 0.0050155492 0.023553468
-0.025462663 0.4911018 0.0055833445 -0.025380949 -0.99966192 0.0056364681 0.043390948
-0.014540714 0.49400991 0.0056249695 -0.082009256 -0.99662071 0.0046488489 0.067912564
-0.0028566821 0.49686795 0.0037012175 -0.0099012908 -0.99810326 -0.060761649 0.094490401
0.007088345 0.49715099 0.0057500242 0.019299256 -0.99734294 -0.070247129 0.11036149
0.014998362 0.49580413 0.0048971898 -0.021079019 -0.99426466 -0.10484905 0.10604525
0.022776114 0.49147072 0.0052353689 -0.056586437 -0.98827618 -0.14180319 0.086524218
0.063752659 0.49098378 0.0051284237 0.29494658 -0.93993443 -0.17184226 0.022088196
0.074696593 0.49699751 0.0053457264 0.29570889 -0.94112825 -0.16381046 0.01226732
0.084184572 0.49934521 0.0049732034 0.18288614 -0.97367561 -0.13604569 0.012493847
0.097854227 0.49932542 0.0051236912 0.051267855 -0.99027097 -0.129364 0.012388554
0.10117774 0.49936929 0.0047904211 0.028563775 -0.99106401 -0.13029261 0.013796452
0.11502456 0.49926978 0.0055461978 0.031355578 -0.98761529 -0.15372996 0.0099725928
0.12551785 0.49939775 0.004574406 -0.023421144 -0.98911965 -0.14523667 0.0092520723
0.13610168 0.49927014 0.0055439216 -0.1539838 -0.98343462 -0.095631063 0.029164473
0.14329192 0.49949718 0.003819166 -0.39813364 -0.91425037 -0.075072758 0.06261453
0.15480024 0.496723 0.0057405485 -0.73583907 -0.6758092 -0.042694349 0.082647294
-0.083554611 -0.49625897 0.014296449 0.77305478 0.55927455 -0.29932982 0.073123462
-0.075552985 -0.5 0.01406269 0.61197358 0.74543911 -0.26421368 0.086314015
-0.066421404 -0.5 0.015290866 0.28773287 0.93615699 -0.20203929 0.061745729
-0.055141412 -0.5 0.015789725 0.079344869 0.97139573 -0.22381829 0.034821894
-0.044447713 -0.5 0.014344841 -0.014821919 0.99169517 -0.12775347 0.019733356
-0.03466161 -0.5 0.017060319 0.021842966 0.98285282 -0.18309368 0.027485618
-0.02455565 -0.5 0.014869613 0.016315103 0.98961866 -0.14278907 0.020167883
-0.013759176 -0.5 0.014172457 -0.00047919655 0.99369329 -0.11213131 0.016750468
-0.0049676788 -0.5 0.016670128 -0.1012949 0.96044707 -0.25938529 0.036705531
0.0053428053 -0.5 0.01913387 -0.28956819 0.89061475 -0.35065046 0.073185712
0.015666386 -0.5 0.014729149 -0.52891946 0.79371727 -0.30042827 0.083888367
0.024902405 -0.49674413 0.014232185 -0.75905669 0.56451958 -0.32426926 0.065456189
-0.083747812 -0.48547867 0.015873797 0.88109785 0.2446311 -0.40474975 0.046547495
0.02587631 -0.48451707 0.015175203 -0.88658077 0.25900474 -0.38326374 0.049363963
-0.08414717 -0.47494537 0.014901172 0.90231913 0.041943364 -0.42902321 0.023158798
0.025931921 -0.47614905 0.015039825 -0.93178177 0.084791012 -0.35297775 0.026211217
-0.084013782 -0.46550533 0.015215281 0.92483813 0.012807949 -0.38014519 0.025052065
0.025913941 -0.4646349 0.015084358 -0.90794039 0.013908997 -0.41886851 0.01642631
-0.083659962 -0.45537886 0.016094591 0.8841936 0.0093244277 -0.46702752 0.020209899
0.026412921 -0.45367974 0.013862703 -0.93248844 0.010466081 -0.36104816 0.015632268
-0.084434375 -0.44309562 0.01421492 0.93233496 0.0090915225 -0.36148152 0.024260852
0.025575696 -0.44349125 0.015868584 -0.88619417 0.0013836998 -0.46331194 0.016857687
-0.084218845 -0.43535483 0.014735919 0.92604578 -0.0072275633 -0.3773421 0.024419388
0.025923155 -0.43423358 0.015062102 -0.92305708 0.0080064489 -0.38457957 0.021517159
-0.08380314 -0.42489463 0.015740611 0.8965925 0.0060849558 -0.44281471 0.019087831
0.026099944 -0.4264749 0.014627677 -0.91644657 -0.018746251 -0.39971781 0.023416422
-0.083919592 -0.4154413 0.015470919 0.91716129 -0.00021596022 -0.39851618 0.023078462
0.026095228 -0.41608548 0.014636022 -0.92077947 -0.033691306 -0.38862574 0.015646664
-0.083769128 -0.40452313 0.015834169 0.8902933 0.0025475086 -0.45538038 0.01943882
0.02623212 -0.4060367 0.014316201 -0.92824501 0.0087724905 -0.37186572 0.017189741
-0.084058136 -0.39516243 0.015136424 0.9046914 -0.010243139 -0.4259443 0.016290948
0.024804404 -0.39366856 0.017736759 -0.88760811 0.0028288476 -0.4605906 0.017161986
-0.08408732 -0.38532022 0.015066004 0.89920866 0.010955296 -0.43738285 0.017830174
0.026219515 -0.38578206 0.01433301 -0.92579156 0.016093276 -0.37769163 0.021141043
-0.083809629 -0.37430233 0.015736397 0.89766228 0.013375631 -0.4404811 0.018495956
0.025747707 -0.37611923 0.015485673 -0.89727372 -0.0053623128 -0.4414421 0.016775187
-0.083549194 -0.36609182 0.016345281 0.89228845 -0.0060681901 -0.45142496 0.01908431
0.026224446 -0.36480898 0.014334725 -0.93602258 -0.017434206 -0.3515079 0.015092974
-0.083976552 -0.35472208 0.015333405 0.9168238 0.013710528 -0.39905664 0.025016177
0.025873745 -0.35472074 0.015165692 -0.90699309 0.0075932303 -0.42107686 0.015570423
-0.084241293 -0.34488645 0.014680495 0.89412469 -0.0043185148 -0.44779724 0.018439902
0.025234193 -0.34371778 0.016724614 -0.88203532 0.0085050799 -0.4711065 0.019047646
-0.083762959 -0.33329397 0.015844518 0.88717586 0.0068938206 -0.46137989 0.017763808
0.026250448 -0.33496171 0.014257586 -0.92598349 -0.0045686401 -0.37753627 0.020302119
-0.084618218 -0.32500619 0.01378025 0.92847878 0.0007371204 -0.3713848 0.019186392
0.025549388 -0.32554379 0.015948577 -0.8797282 0.021251623 -0.47500184 0.018131135
-0.084441021 -0.3162131 0.014212044 0.92207474 -0.010918644 -0.3868579 0.022282427
0.026151555 -0.31491464 0.014504498 -0.92647064 -0.0036888779 -0.37634903 0.019113861
-0.084335171 -0.30348694 0.014467585 0.91742933 0.0037316652 -0.39788118 0.020636657
0.026066806 -0.30564836 0.014691961 -0.92690814 -0.0022167868 -0.37528181 0.019655962
-0.083906449 -0.29547891 0.015502666 0.88919371 -0.017719204 -0.45718765 0.017418472
0.025117548 -0.2960237 0.017006999 -0.89320505 -0.0042054057 -0.44962987 0.018893361
-0.083805211 -0.28395915 0.015746992 0.8809616 0.0090835383 -0.47310057 0.01755023
0.025935939 -0.28550756 0.015026569 -0.9106921 -0.020244163 -0.41258943 0.016036678
-0.084775969 -0.2750819 0.01340341 0.94861752 0.017032895 -0.31596628 0.023880325
0.026422748 -0.27306646 0.013855984 -0.90023571 -0.0020497553 -0.43539807 0.013612909
-0.083929107 -0.26510531 0.015447974 0.88746774 0.0066933306 -0.46082124 0.018758068
0.025552718 -0.26588756 0.015956409 -0.89525986 0.010931951 -0.44541034 0.01704648
-0.084246501 -0.25405487 0.014681686 0.91540778 -0.010536968 -0.40238985 0.020936873
0.02563582 -0.25540486 0.015751241 -0.91932338 0.0095453765 -0.39338705 0.018676313
-0.084279887 -0.24538115 0.014601069 0.93368667 -0.0071028727 -0.3580206 0.023605231
0.026212612 -0.24338403 0.014363299 -0.9209069 -0.0087853707 -0.38968357 0.019559739
-0.084295288 -0.23567104 0.014563902 0.92008132 -0.022921104 -0.39105639 0.019887853
0.026095446 -0.23480932 0.014638862 -0.93554938 0.013991609 -0.35291862 0.017541623
-0.083718412 -0.22540262 0.015956642 0.8881104 0.01183675 -0.45947781 0.01817831
0.025943393 -0.22388211 0.015010431 -0.91500378 0.012719222 -0.4032447 0.011928566
-0.084402628 -0.21408507 0.014295615 0.90322006 4.0446877e-05 -0.42917782 0.018044695
0.025962619 -0.21443124 0.014966829 -0.92251724 -0.011220027 -0.38579267 0.020917861
-0.083979182 -0.20530337 0.015327037 0.9009167 0.014008251 -0.43376589 0.018541524
0.026215186 -0.20347713 0.014357076 -0.92279017 0.012976047 -0.38508427 0.018301524
-0.084380478 -0.19600433 0.014358255 0.9105522 -0.014770382 -0.41313007 0.022930717
0.02562209 -0.1953786 0.015788935 -0.89405394 0.013654605 -0.4477511 0.016948717
-0.08409369 -0.18475081 0.015040211 0.90250963 6.7433197e-05 -0.43066972 0.015178416
0.026621282 -0.18476008 0.013374072 -0.95199203 -0.0059944172 -0.30606419 0.018114287
-0.084135167 -0.17528777 0.014940167 0.91201824 -0.014404876 -0.40989649 0.023017114
0.025564995 -0.17554499 0.015926776 -0.8951714 0.0096136574 -0.44561851 0.018668199
-0.0843172 -0.16442312 0.014511007 0.91181612 -0.022587264 -0.40997702 0.023251206
0.025221832 -0.16573161 0.016737893 -0.87699795 -0.0014930017 -0.48049185 0.019043248
-0.083890572 -0.15477954 0.015540991 0.88759571 -0.00073397066 -0.46062279 0.0170014
0.025788069 -0.1557855 0.015388233 -0.90666038 -0.013736024 -0.42163774 0.015320539
-0.084287345 -0.14359625 0.014583082 0.89878577 0.024723697 -0.43769041 0.016019287
0.026460515 -0.14628895 0.013752588 -0.92859799 -0.022084791 -0.37042946 0.020787274
-0.083944388 -0.13436374 0.015401729 0.91052014 0.016125826 -0.41315028 0.014538231
