# .PCD v0.7 - Point Cloud Data file format
VERSION 0.7
FIELDS x y z normal_x normal_y normal_z curvature
SIZE 4 4 4 4 4 4 4
TYPE F F F F F F F
COUNT 1 1 1 1 1 1 1
WIDTH 580
HEIGHT 1
VIEWPOINT 0 0 0 1 0 0 0
POINTS 580
DATA ascii
0.034806706 0.15596892 0.33481178 -0.26245508 -0.86514705 0.42736158 0.0015594936
0.04445976 0.15228476 0.33434165 0.32200104 0.83893299 -0.4387559 0.0015773209
0.052846301 0.15026507 0.33680776 -0.38959494 -0.82898241 0.40125307 0.0016547564
-0.014680577 0.16157897 0.3374005 0.12019613 -0.89811176 0.42302272 0.001616895
-0.0038118064 0.16166723 0.33584312 -0.018389367 0.89836121 -0.43887237 0.0020251158
0.0044559627 0.16214833 0.33693001 0.027182018 0.89918125 -0.4367314 0.0016463313
0.013304923 0.16162424 0.33710676 -0.090308584 -0.9011898 0.42391184 0.0018858464
0.022786912 0.16061656 0.33827406 -0.17724006 -0.89223307 0.41533837 0.0018130777
-0.03458178 -0.16172741 0.34784332 0.27424639 0.9003492 0.33787608 0.0017082584
-0.02608493 -0.16274403 0.34452721 0.2086006 0.90383744 0.37358233 0.0016419295
-0.013909075 -0.1648472 0.3446058 0.10386398 0.91640598 0.38653892 0.0018863911
-0.0067247665 -0.16511816 0.34382194 0.046564341 0.91938895 0.39058387 0.0020343231
0.0049418923 -0.16594766 0.34549928 -0.036502272 0.92551541 0.37694663 0.0019875746
0.015476802 -0.16514762 0.34592131 -0.11627404 0.91827184 0.37849322 0.0019867492
0.025956204 -0.16313107 0.34555823 -0.21009518 0.90322274 0.37423101 0.0017745333
0.034644675 -0.1612366 0.34663185 -0.27375874 0.89402217 0.35465577 0.0014709729
0.040896919 -0.16066447 0.34992859 -0.31354988 0.89342272 0.32168636 0.0019112463
-0.062133849 -0.15037951 0.34845236 0.45228684 0.83200294 0.32125971 0.0017547096
-0.053549748 -0.15358298 0.34565645 0.39237347 0.85019511 0.3510147 0.0016402975
-0.045623776 -0.15710253 0.34565914 0.34321457 0.86808038 0.35866424 0.0015271301
-0.037485536 -0.15821497 0.34161511 0.286704 0.88077909 0.37686732 0.0017801956
0.037103135 -0.15895346 0.34303892 -0.28224209 0.88353813 0.37376419 0.0015647819
0.04564026 -0.15682501 0.34495497 -0.33905637 0.86939275 0.35943991 0.0018671319
0.054805942 -0.15259567 0.34464413 -0.41576275 0.84226066 0.34313017 0.0016689071
0.060480848 -0.15165275 0.34951878 -0.44498205 0.84030604 0.30963969 0.0018670126
-0.073719241 -0.14216074 0.34525189 0.53052759 0.77818483 0.33610827 0.0015424688
-0.066061318 -0.14643309 0.34442547 0.48273179 0.80226463 0.35120025 0.0016416017
0.058054477 -0.14992699 0.34208417 -0.42138052 0.83068085 0.36387888 0.0017167454
0.06549377 -0.14674921 0.34439656 -0.47122714 0.817056 0.33221164 0.0016042842
0.073922053 -0.1414499 0.34401518 -0.5390085 0.77129465 0.33848834 0.0016250084
-0.090845123 -0.13026634 0.34878963 -0.77234358 -0.49927992 -0.39268938 0.035269838
-0.084763013 -0.13445793 0.34589827 0.67821676 0.63285267 0.37352318 0.02043009
-0.076454028 -0.13832057 0.34110847 0.57262969 0.72162443 0.38904163 0.0079072351
0.078344323 -0.13766699 0.34227702 -0.58857071 0.7123456 0.38229346 0.0079601482
0.08570493 -0.1336472 0.34594828 -0.69964111 0.59645867 0.3933692 0.02197328
-0.093951017 -0.12620588 0.34643617 -0.85074109 -0.3367618 -0.40352321 0.037019756
-0.089043416 -0.12946574 0.34237719 -0.75697494 -0.46805725 -0.455973 0.029747564
0.089429647 -0.12835723 0.34045359 0.7725063 -0.44228774 -0.45564863 0.030303651
0.094667651 -0.12426563 0.34566325 0.84420758 -0.34127623 -0.41333297 0.03835725
-0.096278198 -0.11592561 0.34638962 -0.89533484 -0.022403583 -0.44482982 0.030650284
0.095498912 -0.11534468 0.34528485 0.89929289 -0.022909518 -0.43674642 0.029249554
-0.092872605 -0.10696988 0.3457925 -0.88079762 0.11818554 -0.45850599 0.017489124
-0.08919815 -0.10205311 0.34142476 -0.85114247 0.20807511 -0.48193488 0.0079905149
0.088448584 -0.10212255 0.34008187 0.83817607 0.2386561 -0.49041227 0.0058098407
0.091634028 -0.10599476 0.3436954 0.87179703 0.15136188 -0.4658964 0.015606855
-0.091054857 -0.099297471 0.34843108 -0.86637449 0.2650077 -0.42328027 0.0048387623
-0.087908611 -0.094268873 0.34522206 -0.83778572 0.29424778 -0.45992759 0.0022762942
0.087575346 -0.093732871 0.34492862 0.84085828 0.29753259 -0.45214114 0.0027549851
0.090473481 -0.09867233 0.34760004 0.87156814 0.27065256 -0.40879834 0.0042366651
-0.084867574 -0.085525878 0.34488729 -0.82947719 0.27727178 -0.48485878 0.0033683479
0.086087145 -0.086169675 0.34678313 0.85155803 0.27475601 -0.44649535 0.0041179773
-0.082164235 -0.075952969 0.34505558 -0.83033168 0.24671857 -0.49967912 0.0031847355
-0.079256222 -0.07355658 0.34171599 -0.81726861 0.23114415 -0.52786773 0.0041169417
0.079490006 -0.077536233 0.34054974 0.81618446 0.2486829 -0.52153593 0.0046071303
0.082580917 -0.075396545 0.34630102 0.84648854 0.24879718 -0.4706986 0.0040422049
-0.081107721 -0.065834306 0.34796083 -0.85537976 0.21537104 -0.47110596 0.0042396151
-0.077999555 -0.064620808 0.34329674 -0.8275696 0.21230386 -0.51966888 0.0037693135
0.077919662 -0.063528962 0.3435733 0.84010834 0.2002558 -0.50409877 0.0033033232
0.080949262 -0.066668212 0.3471196 0.84697402 0.229104 -0.47973567 0.0037619446
-0.075786106 -0.054377187 0.34368801 -0.8232708 0.17301942 -0.54063803 0.0038984274
0.075805381 -0.053983331 0.34386989 0.82616413 0.17162539 -0.53665406 0.0035911086
0.080396645 -0.059747539 0.34964639 0.86658418 0.18981929 -0.46151972 0.004070323
-0.074633606 -0.043716911 0.34501949 -0.82839668 0.14320964 -0.54152548 0.00444791
0.075332142 -0.045227937 0.34564304 0.84211659 0.14078495 -0.52059519 0.0027819367
-0.073322505 -0.034051832 0.34518412 -0.82728219 0.089715689 -0.55457669 0.0037746979
-0.069464259 -0.032536298 0.34034991 -0.79634625 0.096519895 -0.59709013 0.005652729
0.073353611 -0.036085404 0.34495085 0.83217645 0.12736855 -0.53968465 0.0036024456
-0.073045492 -0.026550157 0.34599736 -0.82998741 0.097140275 -0.54925829 0.0040747393
-0.068965793 -0.024868742 0.3408609 -0.80555499 0.078951791 -0.58723736 0.005214843
-0.023595752 -0.02215476 0.34372327 0.52061146 0.8497442 -0.083057716 0.034691196
-0.016920568 -0.025313042 0.34607822 0.39915526 0.91352785 -0.078370258 0.03167291
-0.0045475969 -0.02736488 0.34360823 -0.0055372301 0.99724931 -0.073912807 0.023079984
0.0044858656 -0.026017895 0.34487405 -0.20402631 0.97712326 -0.060028162 0.025876787
0.014062179 -0.02184595 0.34475324 -0.58992535 0.80580986 -0.051561002 0.031011349
0.069036126 -0.023661712 0.34113529 0.81969786 0.068879232 -0.56863964 0.0049350932
0.073843606 -0.025373301 0.34714141 0.84745121 0.081400327 -0.52459544 0.0050337869
-0.072671086 -0.015565004 0.34671882 -0.83135945 0.05383572 -0.55312121 0.0042243563
-0.068690576 -0.012349004 0.3416816 -0.8157922 0.029264214 -0.57760423 0.0049199541
-0.032516282 -0.014147693 0.34450352 0.72221637 0.57717925 -0.3811399 0.079076029
-0.028400026 -0.018587403 0.34170207 0.64036393 0.72433603 -0.25548238 0.067478187
0.018580288 -0.018544203 0.3443023 -0.70259255 0.70645595 -0.085345156 0.036137328
0.023175761 -0.013451765 0.34480572 -0.83482081 0.54985458 -0.027094007 0.023175422
0.068483703 -0.011739094 0.3414427 0.80874598 0.031751413 -0.58730036 0.0064091771
0.072676942 -0.015839504 0.34670669 0.84208238 0.065237962 -0.53538889 0.0038021049
-0.073127694 -0.0068709543 0.34781498 -0.8557899 0.039152354 -0.51583976 0.0039465688
-0.068763569 -0.0051314388 0.34213999 -0.81829375 0.026436331 -0.57419199 0.0056663826
-0.038094353 -0.0043135658 0.34569857 0.6748178 0.41716409 -0.60876518 0.14837077
0.027306231 -0.0064713689 0.34725446 -0.92541552 0.37524244 -0.05290721 0.017931383
0.06807521 -0.0016169735 0.34141979 0.80567157 -0.001238175 -0.59236127 0.0063033854
0.072109371 -0.0052914526 0.34651002 0.84101188 0.0085023977 -0.54094976 0.0043386556
-0.071460478 0.0038291297 0.34572572 -0.83598518 -0.011359071 -0.54863453 0.0046690949
-0.069322839 0.0061917687 0.34281552 -0.77184051 -0.011564817 -0.63571101 0.067768991
-0.040348176 0.0071660778 0.34515512 0.72948962 0.1083122 -0.67536163 0.2017789
-0.039713573 0.0014547498 0.34667149 0.75634825 0.22910982 -0.61273652 0.13961799
0.029815117 0.0012844866 0.34605172 -0.96607894 0.24564619 -0.079683326 0.029362608
0.030468 0.0068363301 0.34664607 -0.99460983 0.039305739 -0.095949747 0.036449451
0.068599798 0.0067917136 0.34184304 0.81282079 -0.034135666 -0.58151269 0.0058131386
0.071920842 0.0078268126 0.34611899 0.83938533 -0.038226403 -0.54219103 0.0039930134
-0.072306417 0.015862435 0.34621596 -0.8384276 -0.050426312 -0.54267514 0.0039343741
-0.068812296 0.015291199 0.34168714 -0.72545016 -0.098223321 -0.68122989 0.076292984
-0.040137593 0.011192913 0.34384012 0.78970712 -0.071822435 -0.60926521 0.22716632
-0.039159834 0.016658492 0.34521514 0.72195172 -0.34259889 -0.60117519 0.18971846
0.029532446 0.016021583 0.34301513 -0.89555109 -0.26832041 -0.35495397 0.088044211
0.030231778 0.011419097 0.34550002 -0.99125361 -0.096823119 -0.089675002 0.03666101
0.068601564 0.015486045 0.34140778 0.81893742 -0.052511111 -0.57147539 0.0052250321
0.072312869 0.015807278 0.34622827 0.8378951 -0.058265656 -0.54271257 0.0043375664
-0.073310897 0.024967909 0.34651202 -0.83450705 -0.09962818 -0.54191518 0.003709161
-0.069237694 0.022922209 0.34150991 -0.8087694 -0.086935245 -0.5816651 0.0053560305
-0.034811683 0.026565704 0.34477264 0.7324574 -0.51058704 -0.45034099 0.089836515
0.026192371 0.024626924 0.34456232 -0.8594718 -0.51097542 -0.014571918 0.028550424
0.069429412 0.027397679 0.3410823 0.79695058 -0.088562049 -0.59751701 0.0054311291
0.071804978 0.024325531 0.34465995 0.83051634 -0.069231607 -0.55267489 0.0042799436
-0.072720043 0.034060232 0.34436226 -0.82375109 -0.10838626 -0.55649489 0.0043226634
-0.069940433 0.038665503 0.34004274 -0.79545748 -0.12495518 -0.592987 0.0060655619
-0.031495456 0.031349555 0.34446323 0.73514742 -0.66554648 -0.12886456 0.041845977
-0.025311667 0.036702398 0.34469101 0.62019736 -0.78140807 -0.068968907 0.029259985
0.0099957408 0.039982643 0.34553832 -0.36989832 -0.92701441 -0.061801899 0.026177986
0.01496941 0.036962919 0.34426105 -0.62575006 -0.77927244 -0.034224089 0.02935374
0.021148883 0.031962767 0.34499967 -0.75511044 -0.65143603 -0.07375177 0.034411356
0.069459453 0.030754255 0.34061337 0.79463029 -0.10698169 -0.59759319 0.0056090984
0.072892554 0.035761878 0.34432092 0.82418978 -0.11603563 -0.55429852 0.0043789065
-0.074281976 0.043971371 0.34440333 -0.82211238 -0.13912497 -0.55206472 0.0047525447
-0.014640124 0.041804347 0.34658191 0.3255094 -0.94367087 -0.059405256 0.027489234
-0.0048495349 0.043227635 0.34457496 0.0058197537 -0.99522918 -0.097390994 0.037445936
0.0053685452 0.041680574 0.34611362 -0.36989501 -0.92701244 -0.061851948 0.02617852
0.073296264 0.045245755 0.34278026 0.81761181 -0.15047012 -0.55576038 0.0044129658
-0.076190159 0.05467435 0.34421444 -0.83481938 -0.16562992 -0.52501738 0.0037827052
0.076508008 0.054920983 0.34454182 0.8305015 -0.16681293 -0.53145152 0.0032448049
0.080418788 0.059435893 0.34987721 0.85910976 -0.20112096 -0.47061744 0.0043204594
-0.081138112 0.06517113 0.34834972 -0.86249685 -0.21847709 -0.45647231 0.0045545273
-0.077472948 0.063781358 0.3429192 -0.82496864 -0.21103115 -0.52430201 0.0037437514
0.077838145 0.064559691 0.3431516 0.82796055 -0.19723849 -0.52495551 0.0032945536
0.080799378 0.065369122 0.34744084 0.84430897 -0.21482289 -0.49091104 0.0036168271
-0.081857376 0.074214235 0.34547085 -0.83136255 -0.24183083 -0.50035399 0.003525127
-0.078752108 0.072593808 0.34141508 -0.82040912 -0.21606444 -0.52938181 0.0043943045
0.077456146 0.070659548 0.34041816 0.82251137 -0.22461972 -0.52251416 0.003462909
0.082856551 0.075687863 0.3467209 0.84749162 -0.22977769 -0.47849786 0.0039924323
-0.085330985 0.085639238 0.34566393 -0.83310151 -0.27584422 -0.47942862 0.0031998288
0.08479923 0.085138626 0.34525976 0.83125687 -0.27138191 -0.48514304 0.0031099864
-0.091134846 0.099336252 0.34858865 -0.87148178 -0.27164331 -0.40832517 0.0045860144
-0.087801225 0.095296904 0.34415606 -0.83188075 -0.29716274 -0.46868816 0.0025343949
0.087247074 0.093694128 0.34427857 0.8328495 -0.29133597 -0.47062188 0.0028292919
0.09039934 0.097743988 0.34827131 0.8599233 -0.29087788 -0.41943055 0.0034890906
-0.092455052 0.10573113 0.34591895 -0.86896336 -0.2129571 -0.44671237 0.0094604082
-0.089736208 0.10268687 0.34214327 -0.83948737 -0.24757802 -0.48370028 0.0050154626
0.092372909 0.10569643 0.34575248 0.87858456 -0.15778908 -0.45076793 0.014172355
-0.095462479 0.1143731 0.34560734 -0.89729673 0.036277302 -0.43993473 0.035173245
0.095610611 0.11538843 0.34514064 0.89585179 0.029669542 -0.44336119 0.02775904
-0.093580134 0.1255575 0.34441704 -0.82651103 0.37141433 -0.42300227 0.034430549
0.088115931 0.12969783 0.3408978 0.74419773 0.49238834 -0.45135739 0.027397888
0.095014058 0.12389152 0.34516767 0.8325963 0.33540916 -0.44077671 0.031956583
-0.083113179 0.13536625 0.34510684 0.65620118 -0.6545403 0.37546897 0.013519308
-0.078091592 0.13844343 0.34360927 0.59901392 -0.70538914 0.37895694 0.0096037667
0.07594455 0.13891684 0.34148264 -0.5631749 -0.738244 0.37125447 0.0060528154
0.083875291 0.1345938 0.34467474 -0.68401504 -0.61168307 0.39745095 0.020717615
0.090940453 0.13036554 0.34927535 -0.76429492 -0.52276969 0.37757796 0.026853288
-0.074079245 0.14282052 0.3472248 0.53692544 -0.78343147 0.31296358 0.0018508851
-0.064994812 0.14779767 0.34617943 0.46458811 -0.81980062 0.3347908 0.0017388283
-0.057393141 0.14947018 0.34016052 0.42575505 -0.82124859 0.37984654 0.0017138011
0.064741977 0.14754154 0.34528324 -0.4606708 -0.82043546 0.3386268 0.0014140611
0.072281912 0.14282864 0.34475735 -0.51887214 -0.78549987 0.33728564 0.0019357704
-0.062171824 0.15036309 0.34846374 0.45676178 -0.82980162 0.32062137 0.0017737517
-0.053944778 0.1530374 0.34469342 0.40584621 -0.83918053 0.36202896 0.0015125502
-0.04481031 0.15702508 0.34461722 0.34037507 -0.87134153 0.35342446 0.001933882
-0.037047312 0.15954252 0.34436581 0.27537403 -0.88859487 0.36683547 0.0016271328
0.036035839 0.15884927 0.34197769 -0.27229506 -0.88263059 0.38316908 0.0017238508
0.044648189 0.15733668 0.34533253 -0.33587399 -0.87132674 0.35774061 0.0016738527
0.053968787 0.15278822 0.34403837 -0.40517443 -0.84442693 0.35039523 0.0014702994
-0.031726781 0.16108508 0.34408745 0.24177393 -0.89436746 0.37636718 0.0017004971
-0.024778644 0.16302153 0.34456763 0.18920358 -0.90428388 0.38271749 0.0015488076
-0.01493674 0.16513802 0.34566966 0.12167054 -0.91587979 0.38257089 0.00183313
-0.004059046 0.16589713 0.34528634 0.029287104 -0.92463607 0.379724 0.0022123065
0.0033276372 0.16556448 0.34441304 -0.015137182 -0.92017448 0.39121583 0.0017675261
0.017227227 0.16438822 0.344695 -0.14328705 -0.91475183 0.37775391 0.001634922
0.024611069 0.16291788 0.3443186 -0.18633045 -0.90534055 0.38162732 0.0018487988
0.033238839 0.16196966 0.34748074 -0.26567832 -0.90072215 0.34367809 0.0017195091
0.041134767 0.16019094 0.34901005 -0.32223231 -0.88864666 0.32630262 0.0019194549
-0.0059226491 -0.1707747 0.35877329 0.050604932 0.95641065 0.2876071 0.0023227851
0.0044229156 -0.17056288 0.35791621 -0.043112062 0.95297545 0.29996517 0.0022776856
0.012687386 -0.17017183 0.35876769 -0.10517982 0.94972777 0.29488024 0.0025139533
-0.042345457 -0.16186112 0.35549676 0.32981402 0.89833677 0.29019609 0.0017130054
-0.034843307 -0.16439129 0.3556821 0.27268398 0.91820717 0.287296 0.0019060259
-0.025644325 -0.16690707 0.35574728 0.21746303 0.9300561 0.2961511 0.0017767098
-0.015295343 -0.16822965 0.35397434 0.13806939 0.93836606 0.31686911 0.0019318787
-0.0053050197 -0.1686538 0.35239252 0.046075903 0.93878067 0.34142038 0.002074742
0.0055979057 -0.16923881 0.35408011 -0.06161936 0.94425172 0.32340658 0.002137529
0.016536107 -0.16812299 0.35416642 -0.14810309 0.93350643 0.3265444 0.0020645789
0.025387216 -0.16645052 0.35418057 -0.21334957 0.92586404 0.31186178 0.0018653161
0.034383845 -0.1645464 0.35562748 -0.27357236 0.91491824 0.29678729 0.0020526221
0.044879634 -0.16141291 0.35732615 -0.35145023 0.89824182 0.26390225 0.001745224
-0.063296884 -0.15198162 0.35457912 0.46942875 0.83664495 0.28224438 0.0017653151
-0.055817053 -0.15589963 0.35490456 0.41937402 0.86557585 0.27368551 0.0014603088
-0.048567064 -0.15921539 0.3551634 0.3727887 0.8830108 0.28516769 0.0015366697
0.046694055 -0.15957619 0.35381579 -0.34442118 0.89260834 0.29090282 0.001840864
0.055176903 -0.15601805 0.35441905 -0.41146544 0.86559707 0.28537324 0.0016689644
0.06419681 -0.15220806 0.35676017 -0.47994328 0.8374334 0.26145715 0.0017049552
-0.0805775 -0.14122576 0.3561886 0.57808656 0.77845186 0.24459893 0.0018684408
-0.073238008 -0.14652394 0.35655144 0.53118783 0.80872637 0.25258914 0.0015639071
-0.068970919 -0.14857377 0.35392296 0.49636969 0.82230335 0.27827021 0.0015062303
0.067232333 -0.149545 0.35377249 -0.48464927 0.83002728 0.275989 0.0014933069
0.074795075 -0.14471543 0.35396302 -0.5424487 0.79248446 0.27877918 0.0015166469
-0.091900289 -0.13163966 0.35496259 0.77677661 0.54440504 0.31660908 0.030631931
-0.085037209 -0.13734689 0.35482156 0.64946926 0.7084679 0.27615717 0.0098397732
0.086243942 -0.13636436 0.35486752 -0.64296544 0.70643401 0.29588246 0.0096150581
0.094709083 -0.1308713 0.35967669 -0.81994349 0.51325494 0.25349939 0.030300625
-0.1015175 -0.12180549 0.35819161 0.91454476 0.2518388 0.31652024 0.039454214
-0.096745446 -0.12685132 0.35513228 0.8443141 0.39972287 0.35686877 0.040913541
0.096537344 -0.12657999 0.35387537 -0.86175424 0.3831751 0.33250013 0.040756952
0.10096917 -0.12338842 0.35786217 -0.92952353 0.22716668 0.29048461 0.039041396
-0.10152519 -0.11555268 0.35885155 -0.94317532 -0.041580603 -0.32968372 0.033707846
-0.098534748 -0.11348748 0.35359779 -0.91866559 -0.017930394 -0.39462891 0.032744445
0.098091505 -0.11292719 0.35334507 0.92770994 0.058690812 -0.36865917 0.024702575
0.10142589 -0.11577434 0.35859993 0.94670147 -0.034652591 -0.32024279 0.02986134
-0.095239684 -0.1035828 0.35460928 -0.90788347 0.17909659 -0.37904111 0.012993811
0.096705124 -0.10562205 0.35627946 0.92829257 0.17367603 -0.32880011 0.011923539
-0.092775173 -0.096494958 0.35502344 -0.88778496 0.29525739 -0.35307366 0.0032587352
-0.089332186 -0.090884447 0.35113102 -0.860964 0.28932455 -0.41836861 0.0034675468
0.089630485 -0.090805762 0.3519094 0.87872928 0.28289384 -0.38445526 0.0028931701
0.092728689 -0.095265195 0.35591123 0.88596487 0.29889977 -0.35457751 0.0032773195
-0.091330871 -0.088682458 0.35758454 -0.89648914 0.28435361 -0.33977973 0.0038647354
-0.088493973 -0.084049016 0.35416183 -0.87179625 0.27728525 -0.40383673 0.003502605
0.08831542 -0.084152341 0.35365435 0.8857891 0.26529145 -0.38078627 0.0028291252
0.09121415 -0.087051079 0.35850906 0.90024847 0.27926421 -0.3340123 0.0046539493
-0.085994132 -0.075118504 0.35434434 -0.88155586 0.24793361 -0.40173158 0.0033581431
0.087371543 -0.075644769 0.35729045 0.90445983 0.23811531 -0.3539117 0.004119229
-0.083871976 -0.064503357 0.35532996 -0.88237089 0.22481243 -0.41337761 0.0035251079
0.08360713 -0.06466794 0.35459682 0.88512492 0.22022896 -0.40994266 0.0038048017
-0.08230795 -0.055547986 0.35619998 -0.89385915 0.18159664 -0.40992498 0.0046672057
-0.079672903 -0.051010866 0.35171306 -0.87238103 0.16632351 -0.45966065 0.0044322414
0.081369601 -0.054889027 0.35422871 0.89087886 0.16450089 -0.423408 0.0043176129
-0.081194051 -0.047083367 0.35696974 -0.90275306 0.15780792 -0.4001669 0.0056913942
-0.078669265 -0.043733004 0.35222578 -0.87781996 0.12720694 -0.46179059 0.0043564891
0.078889593 -0.043854199 0.35270882 0.88343209 0.12466764 -0.4516699 0.0041060075
0.08096227 -0.046563484 0.35661983 0.89407504 0.14916638 -0.42234969 0.005010861
-0.08014778 -0.033310108 0.35910869 -0.9190616 0.087407872 -0.38429883 0.0055302079
-0.07862772 -0.034866016 0.3550643 -0.90420139 0.094097979 -0.4166117 0.0048292163
0.078792624 -0.033535045 0.3557829 0.89273477 0.10320182 -0.43860456 0.0038681971
0.08039166 -0.034717858 0.35935852 0.92453092 0.099700019 -0.36783499 0.0057379007
-0.077600732 -0.024943901 0.35497406 -0.89672655 0.085065924 -0.43433315 0.0036492688
-0.022992229 -0.022666642 0.35411716 0.47203043 0.85475969 -0.21580791 0.041572202
-0.01512967 -0.026078448 0.35252619 0.28845924 0.94590503 -0.14850873 0.033228643
-0.0067721703 -0.027330007 0.35321143 0.015405428 0.99508727 -0.097795941 0.028049471
0.0046682819 -0.026057189 0.35260463 -0.21229406 0.97092593 -0.11060774 0.026054194
0.01383681 -0.022183999 0.35258162 -0.52607876 0.84040481 -0.13023409 0.033759959
0.077222429 -0.025773933 0.35386088 0.89555776 0.09285818 -0.43514794 0.0034241157
-0.076722272 -0.01530741 0.35450414 -0.88784713 0.045577664 -0.4578757 0.0043831295
-0.033668347 -0.012649347 0.3532998 0.85670215 0.49537784 -0.14374387 0.023498259
-0.027579537 -0.01921699 0.35138902 0.69526166 0.71138865 -0.10265232 0.034261975
0.018309902 -0.018751677 0.3540774 -0.69250476 0.70146471 -0.16847691 0.038593978
0.022484494 -0.014343746 0.35343385 -0.82721537 0.55412418 -0.09306509 0.027592305
0.076963834 -0.01469709 0.35513315 0.90028846 0.049876269 -0.43242684 0.0046844394
-0.076185875 -0.0070216376 0.35387909 -0.88340402 0.027997773 -0.46777493 0.0044340445
-0.037299763 -0.0062431111 0.3518362 0.8875134 0.44650638 -0.11380687 0.027652964
0.027568232 -0.0058942372 0.35290763 -0.92613059 0.37261587 -0.058646299 0.018935706
0.076762564 -0.0065016262 0.35531291 0.90191865 0.023816485 -0.43124881 0.004263029
-0.076147549 0.0052826921 0.35392573 -0.88078082 -0.022631265 -0.472983 0.0041569569
-0.040396314 0.0066622985 0.35221463 0.79272729 0.11494837 -0.59864032 0.11886024
-0.039787203 0.0020140423 0.35362911 0.95801735 0.25420579 -0.13259761 0.033129148
0.030432716 0.0061278194 0.35360312 -0.98274624 0.062618002 -0.17403698 0.039321277
0.077259414 0.0044796458 0.35667431 0.90353471 -0.018737582 -0.42810521 0.004290842
-0.076558203 0.013025395 0.35429728 -0.88720876 -0.026497874 -0.46060666 0.0038108695
-0.040147834 0.011115167 0.35238475 0.69051474 -0.10885633 -0.7150802 0.14599243
-0.039359052 0.01640171 0.35238707 0.90483898 -0.25080025 -0.34404308 0.10078359
0.02915637 0.01698293 0.35389236 -0.96145076 -0.25908321 -0.092132673 0.029312285
0.030296911 0.010924372 0.35214138 -0.980676 -0.12270974 -0.15237136 0.034404118
0.077612177 0.014228722 0.35674548 0.91397172 -0.028812714 -0.40475366 0.0055334582
-0.077565402 0.024708165 0.35494551 -0.88996017 -0.08539816 -0.44797102 0.0033092052
-0.035866201 0.024782619 0.35304764 0.86970401 -0.48036668 -0.11341445 0.02960507
0.025287984 0.026027806 0.3539905 -0.86129016 -0.499578 -0.092741758 0.031112814
0.07779251 0.024209287 0.35561395 0.89869362 -0.084342405 -0.43039072 0.0049363864
-0.080231026 0.034727648 0.35896838 -0.90985441 -0.11395006 -0.39897421 0.0056360811
-0.078653328 0.034644186 0.35516977 -0.89226651 -0.11017255 -0.43786123 0.0037480453
-0.031162798 0.031783078 0.35307273 0.71658772 -0.67055392 -0.19198796 0.036389004
-0.024362287 0.037317503 0.35329524 0.53026062 -0.82962608 -0.17476912 0.032520168
0.015558994 0.036730964 0.35289341 -0.63984907 -0.76414412 -0.08171241 0.035557084
0.021095838 0.032020241 0.35265011 -0.72400326 -0.66526079 -0.18233871 0.034713183
0.078003474 0.036029972 0.35325304 0.87611312 -0.10576865 -0.47036028 0.0043341382
0.080315962 0.033979107 0.35935363 0.92256635 -0.097682662 -0.37326843 0.0052533848
-0.081327908 0.045955643 0.35774776 -0.90433484 -0.15286425 -0.3985109 0.0055355099
-0.078902274 0.046109438 0.35182974 -0.87702525 -0.16317055 -0.45188719 0.0042342022
-0.014363537 0.041976094 0.35399514 0.31335592 -0.94549447 -0.08859051 0.028556792
-0.0043837982 0.043239024 0.35237515 -0.03233692 -0.98502457 -0.16935429 0.035616178
0.004039817 0.04217463 0.35433793 -0.28172544 -0.94778514 -0.14944617 0.036757082
0.079245381 0.044724483 0.35321671 0.88186872 -0.15071358 -0.44675833 0.003902999
0.081452005 0.045742169 0.35813347 0.91657323 -0.1613207 -0.36588126 0.005000235
-0.081694178 0.054733835 0.35505781 -0.88506216 -0.18250057 -0.42820388 0.0038041365
-0.079873666 0.053100538 0.35135484 -0.87197864 -0.15789224 -0.46338245 0.0048051742
0.079815716 0.051858597 0.35171586 0.87722993 -0.1623496 -0.45178553 0.0038781809
0.081997529 0.056164268 0.35519314 0.89313656 -0.18846288 -0.40839803 0.0052581355
-0.083568327 0.06352406 0.35515416 -0.89345664 -0.20822851 -0.3979651 0.0051592598
0.084765546 0.066364974 0.3564277 0.90015048 -0.21712331 -0.37760648 0.0048226709
-0.086358078 0.074289478 0.35571331 -0.89440215 -0.2352474 -0.38039911 0.0039545419
0.086352304 0.074783444 0.35540068 0.89297181 -0.23081844 -0.38642496 0.0033394322
-0.09200006 0.088903919 0.35903633 -0.9041239 -0.27892107 -0.32367104 0.0036437975
-0.088238716 0.08323165 0.35414994 -0.88312602 -0.27004829 -0.38361752 0.0030486858
0.088673525 0.084818713 0.35402608 0.88087058 -0.26484898 -0.39232889 0.0029841079
0.090836607 0.086035959 0.35834816 0.90486467 -0.27823043 -0.3221921 0.0034880429
-0.092871219 0.095268793 0.35623533 -0.88708973 -0.30806616 -0.34375423 0.0040608086
-0.089539669 0.091862656 0.35090861 -0.87899667 -0.29065925 -0.37799746 0.0029158338
0.091167808 0.092819214 0.35413194 0.87912279 -0.29567006 -0.37379447 0.0025071502
-0.095321409 0.10459146 0.35388273 -0.91459966 -0.19890891 -0.35205492 0.010350995
0.095192865 0.10427101 0.35386592 0.90617698 -0.18876407 -0.37843275 0.012679605
-0.10113721 0.11761852 0.3569091 -0.94202662 0.083720177 -0.32492566 0.035337914
-0.098800242 0.11399028 0.35385531 -0.93666071 0.045502707 -0.34726956 0.036237631
0.098207988 0.11352709 0.35300556 0.92470431 0.014645823 -0.38040423 0.03195674
0.10116161 0.11564691 0.3579295 0.94555563 0.061164595 -0.31966135 0.028893905
-0.10150381 0.12019414 0.35748315 0.92248732 -0.22573026 0.31315017 0.040796395
-0.097177386 0.12562913 0.35346264 -0.84687901 0.375732 -0.37632623 0.038554139
0.097046584 0.12698756 0.35550335 -0.84633917 -0.43588963 0.30612129 0.033801775
0.10134915 0.12080022 0.35725239 -0.92095226 -0.21822856 0.32283634 0.039338302
-0.092113279 0.1311508 0.35418913 0.78786469 -0.52245712 0.32604885 0.031635281
-0.085542254 0.13644856 0.35341761 0.65345037 -0.69338906 0.3036679 0.0095489416
0.086387597 0.13577619 0.35349107 -0.6601609 -0.69234252 0.29128912 0.0091207102
0.092202425 0.13182499 0.35626054 -0.76368213 -0.56320667 0.31557557 0.026867356
-0.081182696 0.14063182 0.35570821 0.58325219 -0.77228451 0.25178063 0.0023768714
-0.074508019 0.14522873 0.35510746 0.52916777 -0.80427003 0.27042788 0.0016630432
-0.069238469 0.14906836 0.35638916 0.4981336 -0.83003974 0.25079274 0.0016321723
0.0678197 0.14899485 0.35307014 -0.49339885 -0.82292014 0.28170902 0.0013201453
0.075546876 0.14482437 0.35615852 -0.54144335 -0.80376357 0.24658315 0.0015418796
0.081184492 0.14105502 0.3570959 -0.59190089 -0.7677657 0.24533491 0.0021018786
-0.064355537 0.15180112 0.35594159 0.47581831 -0.83754182 0.26855287 0.0016486736
-0.055753142 0.15562208 0.35403514 0.41450194 -0.86553121 0.28114748 0.0017805601
-0.045201566 0.1592398 0.35085142 0.34601125 -0.88553339 0.31001109 0.0017115654
0.049994048 0.15860625 0.35517722 -0.3840532 -0.87675118 0.28950047 0.0018412216
0.054862253 0.15638055 0.35507622 -0.41973966 -0.86571234 0.27269155 0.0018463002
0.065101042 0.15157561 0.35659721 -0.48366359 -0.83704388 0.25578713 0.0014535561
-0.042473909 0.16179441 0.35544291 0.33081138 -0.89612949 0.29583064 0.0016429933
-0.034880165 0.16448735 0.35582972 0.27361509 -0.91649753 0.29183382 0.0018588954
-0.025939027 0.16676113 0.3555077 0.21711043 -0.93082339 0.29399124 0.0021111483
-0.014340119 0.16849397 0.35431165 0.12215551 -0.9405871 0.31681859 0.0022293848
-0.006010191 0.16909136 0.35369611 0.057943113 -0.94318467 0.32717761 0.0022712294
0.0055555892 0.1688168 0.35290149 -0.053481814 -0.94050217 0.33555233 0.0020769595
0.014991233 0.16795288 0.35311368 -0.13412565 -0.93783057 0.32013157 0.0019310185
0.024478214 0.16698889 0.35514992 -0.20281616 -0.9309867 0.30352822 0.0019638818
0.035536796 0.16406785 0.35510749 -0.29029569 -0.90969336 0.29696187 0.0019623484
0.042941391 0.16102716 0.35348135 -0.32947627 -0.89424175 0.30294737 0.0018259289
-0.0044571157 0.17038758 0.35738483 0.026537154 -0.95177162 0.30565777 0.0021163879
0.0022058727 0.1705922 0.35771403 -0.016240198 -0.95372188 0.30025145 0.0023421426
-0.022872053 -0.17068827 0.36673188 0.18869989 0.95572418 0.22579536 0.0024392176
-0.014757263 -0.17188062 0.36567414 0.12638304 0.96162897 0.24350981 0.0026317653
-0.0035006667 -0.17249887 0.36408746 0.02692092 0.96483982 0.26145619 0.0025582379
0.0054813391 -0.17292894 0.36604583 -0.048557673 0.97298795 0.22569135 0.0026265599
0.014956123 -0.17124271 0.36357456 -0.12696385 0.95625305 0.26355341 0.0028553668
0.022212656 -0.1710349 0.36752918 -0.19776307 0.9567979 0.21313745 0.0028749972
-0.051340967 -0.16114137 0.36607498 0.39937693 0.89302611 0.20736991 0.0017425682
-0.045634776 -0.16330655 0.36528969 0.36985153 0.9046694 0.21162029 0.0017204566
-0.036307618 -0.16656202 0.36503258 0.3116028 0.92504722 0.21723564 0.0018122301
-0.027625781 -0.16923973 0.36516896 0.23210524 0.94029093 0.24895836 0.0017091266
0.019697579 -0.1697569 0.36070213 -0.18450883 0.94696325 0.26309144 0.0025043667
0.026461285 -0.16912067 0.36375719 -0.23163149 0.94019294 0.24976799 0.0020371221
0.035403993 -0.16700536 0.36562929 -0.2937237 0.93253881 0.20999463 0.0018935479
0.044860721 -0.1636187 0.36532575 -0.35378632 0.91183376 0.20831312 0.0016171231
0.050197791 -0.16015598 0.36013895 -0.38815451 0.88946408 0.24122548 0.0017177009
-0.070265651 -0.15067707 0.36475977 0.5206598 0.83096665 0.19597889 0.0016016533
-0.064902596 -0.15371601 0.36438271 0.48559329 0.84940678 0.20665705 0.0017480172
-0.057351548 -0.15784883 0.36456004 0.43679842 0.87537676 0.2071775 0.0018734477
0.05610178 -0.15841527 0.36430395 -0.41531354 0.88370645 0.21581823 0.0015916259
0.065837204 -0.15353103 0.36589879 -0.49443516 0.8460173 0.19947073 0.001836453
-0.083629288 -0.14189909 0.36580959 0.59996647 0.77629197 0.19341934 0.0019348935
-0.076112211 -0.1469696 0.36512014 0.55252397 0.8106373 0.1938674 0.0013592673
0.075741835 -0.14728126 0.36533216 -0.53833413 0.81565154 0.21191715 0.0013601276
0.083542652 -0.14200388 0.36589086 -0.58904392 0.77924633 0.2140152 0.0015996438
-0.094296299 -0.13266398 0.36368611 0.77441818 0.59454089 0.21632753 0.022721488
-0.087102801 -0.13873149 0.3638458 0.65017456 0.73007661 0.21038343 0.0075310557
0.08773005 -0.13888898 0.36602193 -0.65266955 0.73248816 0.1936067 0.0065670311
0.093925744 -0.13353391 0.36544093 -0.78684413 0.58329439 0.20160329 0.025355438
-0.10291758 -0.12395216 0.36461684 0.90726262 0.36471787 0.20941684 0.040394016
-0.098530628 -0.12904942 0.36482251 0.85049623 0.47889814 0.21751469 0.032817073
0.09878093 -0.1283049 0.3628948 -0.87891173 0.43599603 0.19344676 0.035491679
0.102121 -0.12540816 0.36544749 -0.91491121 0.35528964 0.19158995 0.031535387
-0.10323887 -0.11581724 0.36399814 0.96214086 0.062983476 0.26517537 0.032955121
0.10341469 -0.1139934 0.36622751 -0.97739249 0.037904747 0.2080075 0.032413796
-0.10040826 -0.10711831 0.36418796 -0.94630885 0.14025643 -0.29125208 0.016744658
-0.098474838 -0.10338107 0.36260942 -0.93763149 0.20378482 -0.28163615 0.010599091
0.098915406 -0.10287602 0.3648648 0.93669444 0.22013539 -0.27229378 0.007901066
0.10080852 -0.10675805 0.3665688 0.95296866 0.17747387 -0.24567015 0.012397763
-0.095950596 -0.094944239 0.36425447 -0.91894114 0.28863278 -0.26877183 0.0025329096
0.09625943 -0.094656549 0.36564383 0.92686278 0.28225058 -0.24750762 0.0034689242
-0.092939109 -0.084465496 0.36470506 -0.91699594 0.2724576 -0.29135078 0.0031933298
0.09309613 -0.083494887 0.36623529 0.92920601 0.26394007 -0.25867313 0.0041393838
-0.090919703 -0.07508985 0.36643565 -0.9275794 0.25253919 -0.27535516 0.0038445173
-0.089645743 -0.074207693 0.36374074 -0.92954826 0.22832121 -0.28949887 0.0025757849
0.088866413 -0.074111164 0.3619113 0.91820467 0.2326494 -0.32058448 0.0038791883
0.090867013 -0.074834891 0.36668503 0.92809504 0.25590533 -0.27046639 0.0036320568
-0.087781854 -0.064424738 0.36496636 -0.93536896 0.20688181 -0.28685337 0.0032434831
0.087940343 -0.065192059 0.36487091 0.93006569 0.21854503 -0.29532343 0.0031188049
0.090000845 -0.067315072 0.36967829 0.94473994 0.22905196 -0.23452429 0.0040990841
-0.085733138 -0.0551291 0.36470962 -0.94252741 0.16632314 -0.28979081 0.003388474
0.08520744 -0.054260705 0.36373976 0.93277615 0.17208558 -0.3167257 0.0043992437
-0.084201664 -0.045223083 0.3650693 -0.93710583 0.15747368 -0.31150395 0.0026206709
0.083756387 -0.043713413 0.36451513 0.94421399 0.13244352 -0.30152723 0.0028151362
-0.082374848 -0.035211518 0.36401397 -0.93422008 0.11345505 -0.33817276 0.0042579775
0.082361422 -0.034961466 0.36404487 0.93674481 0.11826874 -0.32942635 0.0030503951
-0.082233459 -0.026078135 0.36588538 -0.94469512 0.087497763 -0.31606221 0.0052177855
0.079297766 -0.02051758 0.36013687 0.91819513 0.076915532 -0.38858938 0.005462117
0.081754461 -0.025002467 0.36501327 0.94241148 0.078404889 -0.32513586 0.0035465939
-0.081607319 -0.014290466 0.36637995 -0.94828635 0.032448601 -0.31575319 0.0055074133
-0.07945364 -0.012438051 0.3613345 -0.93496311 0.03060586 -0.35342225 0.004283871
0.079702221 -0.011022203 0.36204797 0.93195963 0.034682941 -0.36089936 0.0043821726
0.081203312 -0.017765332 0.36511955 0.94504774 0.059910767 -0.32139632 0.0050070207
-0.081440404 -0.0055691791 0.36668095 -0.9467504 0.032650094 -0.32030869 0.0059340126
-0.079102241 -0.004310858 0.36113682 -0.93231702 0.0090035452 -0.36152986 0.0041910945
0.079217926 -0.0049753664 0.36136287 0.93117452 0.014402562 -0.36428905 0.0042834887
0.08138784 -0.004190593 0.36666435 0.95530742 -0.002434731 -0.29560411 0.0060550915
-0.081591375 0.0055642347 0.36704579 -0.95374089 -0.021073049 -0.29989043 0.0059962482
-0.07948982 0.004343898 0.36206985 -0.93083411 -0.0087714856 -0.36533681 0.0041775745
0.079518534 0.0042167334 0.36214936 0.92840219 -0.0095258439 -0.3714546 0.005089913
0.081725754 0.0058898455 0.36734411 0.96079469 -0.031504661 -0.2754651 0.0058550388
-0.081715517 0.014009997 0.3666693 -0.94550723 -0.020866903 -0.32493168 0.0054202592
-0.07957983 0.013329325 0.3615678 -0.93240398 -0.02358814 -0.3606472 0.0042887246
0.079654299 0.01398259 0.36169529 0.92710888 -0.029439023 -0.37363407 0.0041712169
0.081676677 0.014418659 0.36654282 0.95069659 -0.048299134 -0.30633846 0.00629461
-0.081992418 0.025065413 0.36554921 -0.94702214 -0.068702362 -0.31373417 0.0054201935
0.079665139 0.024551786 0.36005235 0.92673707 -0.070388258 -0.36905825 0.0044842684
0.081830427 0.025205895 0.36512235 0.93438894 -0.072631299 -0.34877205 0.0047224509
-0.08319518 0.035409268 0.36604232 -0.94692713 -0.095509842 -0.30693138 0.0048284205
0.083660103 0.033899274 0.36745149 0.95028567 -0.095699795 -0.29630861 0.0046049892
-0.084109306 0.045097962 0.36485296 -0.9360255 -0.15694962 -0.31499702 0.0052230014
0.083910123 0.044687949 0.36451566 0.94342119 -0.13324082 -0.30364993 0.0029929869
-0.086339608 0.056007899 0.36584303 -0.94466692 -0.19199257 -0.26597586 0.0043381331
0.085547104 0.05564303 0.36398721 0.92781949 -0.1877352 -0.32234514 0.0043774182
-0.0878447 0.065131456 0.36459315 -0.9298203 -0.21757564 -0.29680806 0.0031596455
0.087360874 0.064499177 0.36376268 0.93003064 -0.2126908 -0.29967585 0.0033572589
-0.091529049 0.077784255 0.36630237 -0.93296957 -0.25515154 -0.25390062 0.0034347184
-0.089043856 0.070325166 0.36450258 -0.92789507 -0.23064782 -0.29293728 0.0029378582
0.089143239 0.075691208 0.3615959 0.91601819 -0.25147447 -0.31252408 0.0029242008
0.090667672 0.076828197 0.36477989 0.92063814 -0.26253164 -0.28896829 0.0025757095
-0.092688233 0.083657719 0.36487299 -0.92541713 -0.25896847 -0.276656 0.003367868
0.09310402 0.084130116 0.36572611 0.92787558 -0.26239929 -0.26494041 0.0024021806
-0.096260548 0.095559642 0.36480045 -0.91988581 -0.28799173 -0.2662158 0.0023641004
0.095588081 0.09422671 0.36382258 0.91146708 -0.30308726 -0.27814725 0.0028910812
-0.10095888 0.10735287 0.3658745 -0.95634222 -0.1408104 -0.2560899 0.016383363
-0.099330582 0.1050469 0.36314467 -0.94501549 -0.17840484 -0.27407569 0.012793927
0.098725684 0.10296551 0.36424187 0.94374388 -0.20633085 -0.25840864 0.010367656
0.10093053 0.10791226 0.36515072 0.96372348 -0.11429054 -0.24119453 0.018944396
-0.10301025 0.11490764 0.3642256 0.96487772 -0.04408868 0.25897348 0.034352399
0.10343041 0.11574609 0.36469772 -0.9704904 -0.085972294 0.2252934 0.037087098
-0.1028821 0.12407967 0.36568636 0.91758299 -0.32968056 0.22215365 0.044862155
-0.098183885 0.12934688 0.36452913 0.8439768 -0.49397832 0.20901811 0.033798032
0.09948796 0.12793888 0.36365873 -0.88316119 -0.40983951 0.22816192 0.036315456
0.10288839 0.12363659 0.36527824 -0.92977369 -0.28573701 0.23211071 0.036867123
-0.094331518 0.13296039 0.36484617 0.76200241 -0.61235404 0.21065345 0.020893663
-0.087787144 0.13822016 0.36415079 0.66079932 -0.72135466 0.20734453 0.0075001591
0.088092878 0.13791938 0.3638536 -0.65797949 -0.72048426 0.21901014 0.0078096199
0.095339924 0.13263349 0.36673328 -0.7883082 -0.58425736 0.19290788 0.027541313
-0.084052458 0.14155804 0.36566418 0.60613537 -0.76917034 0.20242743 0.0022550274
-0.076384224 0.14651242 0.36404926 0.54727417 -0.81263173 0.20030162 0.0014190834
0.076210931 0.14701957 0.36547506 -0.54924482 -0.81304497 0.19310121 0.0017804543
0.083918735 0.14247046 0.3683401 -0.60986501 -0.77283907 0.17545499 0.002186358
-0.072278976 0.1505488 0.36910534 0.53845966 -0.82753205 0.15890823 0.0015983015
-0.06493745 0.15404494 0.36590177 0.48898652 -0.8508513 0.19220869 0.0019702401
-0.05583328 0.15855905 0.36442754 0.4242515 -0.87934762 0.21623695 0.0015168182
0.056553502 0.15818293 0.36424384 -0.42501277 -0.88042468 0.21027736 0.0017910578
0.064209864 0.15380593 0.36312091 -0.4778432 -0.84746265 0.23124228 0.001651536
0.071674034 0.15067464 0.36802253 -0.52432817 -0.83439946 0.16987509 0.0020655887
-0.052092779 0.16056547 0.36495987 0.39994782 -0.8888002 0.22377653 0.001521338
-0.04458059 0.1636079 0.36483622 0.3557156 -0.91091967 0.20902543 0.0016917001
-0.03401114 0.16719034 0.36458009 0.28166258 -0.93349624 0.22192591 0.0017507108
-0.026342412 0.16904318 0.36338723 0.22231118 -0.94160193 0.25291023 0.0022344512
-0.018839655 0.16975917 0.36005256 0.16408387 -0.9473244 0.27505097 0.0024465867
0.026335947 0.16908246 0.36357465 -0.24206187 -0.93935442 0.24293892 0.0018460031
0.033990193 0.16728999 0.36495849 -0.2768625 -0.93300414 0.22989233 0.0019199932
0.045746937 0.16305502 0.36429188 -0.36388749 -0.90556997 0.21801117 0.0016758182
0.051163718 0.1610115 0.36560723 -0.38964081 -0.89815885 0.20369272 0.0017541985
-0.020606369 0.171064 0.36639327 0.18772085 -0.95767432 0.21822183 0.0029181738
-0.01312456 0.17223363 0.36622998 0.1148456 -0.966528 0.22942121 0.0030448881
-0.0061033396 0.17273475 0.36547762 0.07335899 -0.96647418 0.24606133 0.0027588452
0.0067591369 0.17235427 0.36424702 -0.061256543 -0.96272767 0.26344463 0.0026374483
0.015819041 0.17148036 0.36471549 -0.14158049 -0.95612967 0.25645852 0.0025550351
0.024120918 0.17073549 0.36803517 -0.21776859 -0.95456725 0.20341672 0.0022750518
-0.031866297 -0.17012058 0.37554488 0.28016356 0.94889981 0.14524986 0.0023810852
-0.024495458 -0.17195477 0.37491608 0.22155496 0.96166348 0.16160697 0.0026372203
-0.014048057 -0.17366736 0.37294364 0.13388641 0.97384429 0.18358013 0.0028724519
-0.0042326017 -0.17529206 0.37582266 0.029544456 0.98621166 0.16283041 0.0034780588
0.005572129 -0.17519745 0.37576175 -0.072371162 0.98519605 0.15540662 0.0029082086
0.01542787 -0.17395823 0.37569946 -0.14907172 0.97708857 0.15190636 0.0031222391
0.023029733 -0.17241828 0.37551203 -0.20391072 0.9689824 0.13961892 0.0032232886
0.030135997 -0.17042142 0.37409914 -0.26898021 0.94698 0.17572297 0.0020825586
-0.054749999 -0.16141486 0.37632069 0.43040672 0.89583403 0.11059566 0.0017275513
-0.043250225 -0.16605158 0.37478358 0.35872227 0.92386299 0.13339974 0.0021735237
-0.036840431 -0.16824946 0.3738381 0.31138524 0.93669176 0.1601491 0.0022157782
0.029933199 -0.16967091 0.37008202 -0.26091483 0.94523168 0.19611378 0.0025070291
0.035578039 -0.16893357 0.37569019 -0.3011882 0.9419114 0.14862189 0.0023105252
0.044177506 -0.16584601 0.37583813 -0.35291827 0.92624688 0.1323459 0.00207147
0.054185748 -0.16156264 0.37585455 -0.42388964 0.89579171 0.13369659 0.0015919008
-0.071454294 -0.15202539 0.37398416 0.52430516 0.84181541 0.12826072 0.0015986616
-0.065986089 -0.15539744 0.37550935 0.49956387 0.85912281 0.11110288 0.0017574881
-0.058154464 -0.15941335 0.3745999 0.43959555 0.88845199 0.13194259 0.001662729
0.059028625 -0.1586366 0.37240624 -0.44247693 0.88376474 0.15223029 0.001726261
0.064846471 -0.15597582 0.37530586 -0.4840011 0.86656386 0.12169661 0.0018706532
0.071871646 -0.15151998 0.37269902 -0.52809304 0.83677411 0.1446607 0.0017660807
-0.083936051 -0.14345825 0.37570515 0.61483574 0.77977926 0.117989 0.0017473215
-0.076578699 -0.14879416 0.37557247 0.54581052 0.83125407 0.10539233 0.0016328768
0.077164352 -0.14817314 0.37375829 -0.55349207 0.82272452 0.12950268 0.001645625
0.085122667 -0.14260475 0.37648073 -0.6151706 0.7811349 0.10673951 0.0018726523
-0.093139917 -0.13564278 0.37398505 0.69915724 0.7000441 0.14531788 0.0075702518
-0.088977225 -0.13967849 0.37760139 0.65568942 0.74808866 0.10215092 0.0039372253
0.089379959 -0.13919988 0.37607327 -0.65078926 0.75223935 0.10300097 0.0047395956
0.093957022 -0.13500667 0.37476581 -0.73648584 0.66454899 0.12634535 0.017636113
-0.10407797 -0.12437917 0.37524924 0.92090034 0.37107557 0.11935446 0.03858225
0.10500115 -0.12323396 0.37638506 -0.95437998 0.26181668 0.14356457 0.03902128
-0.10484657 -0.11595622 0.3732312 0.98357224 0.10985489 0.14323939 0.038378112
0.10510376 -0.11493969 0.37685692 -0.99136299 0.065506622 0.11361436 0.027190376
-0.10216083 -0.106383 0.37664005 0.97626317 -0.18435825 0.11367684 0.010423566
0.099738263 -0.10082591 0.37316096 -0.95129728 -0.24887252 0.18192303 0.0056237313
0.10166738 -0.10624824 0.37325391 -0.97348672 -0.12014921 0.19464825 0.01939567
-0.09784694 -0.094756126 0.37417996 -0.93778878 0.2918815 -0.18803534 0.0026582398
0.097868823 -0.094170943 0.37577081 -0.94315785 -0.28325757 0.17383409 0.0031163355
-0.09519171 -0.085481912 0.3745521 -0.94654584 0.25774693 -0.19395219 0.0027453916
0.095109589 -0.085555241 0.3737694 0.94468141 0.25956157 -0.2005115 0.0033899499
-0.092685826 -0.076581635 0.37419018 -0.95106924 0.24159743 -0.19260836 0.0023114805
0.092524879 -0.075931922 0.3741098 0.94572777 0.24879526 -0.20904517 0.0033552155
-0.090632722 -0.066171862 0.37638545 0.95971668 -0.21971622 0.17512451 0.0043287426
-0.089457214 -0.063317902 0.37221861 -0.95499158 0.21235773 -0.20711178 0.0033699495
0.089136399 -0.061107296 0.37347043 0.95754021 0.19975588 -0.20788057 0.0038580059
0.091012582 -0.066302218 0.37905321 -0.96620935 -0.22810629 0.12002888 0.0048205233
-0.088235617 -0.055194695 0.37509206 0.96303827 -0.18434145 0.19640635 0.0031059955
0.088314347 -0.055364691 0.37542933 -0.96710712 -0.18245444 0.17724076 0.004450039
-0.086631343 -0.044797715 0.37524128 0.97185165 -0.1545323 0.17783163 0.0046638744
0.08611118 -0.04232841 0.37421045 -0.96943617 -0.14065002 0.20102496 0.0030998886
-0.085392416 -0.035111129 0.37548515 0.97563475 -0.10281327 0.19382009 0.0042336918
0.085345633 -0.036591671 0.37401649 -0.97200745 -0.11127273 0.20692968 0.0027637789
-0.084543191 -0.024112452 0.37684691 0.98035115 -0.070417471 0.18426317 0.0043707369
0.084428206 -0.025846744 0.37474927 0.97030658 0.07920476 -0.22854295 0.0034524715
-0.083704792 -0.014222841 0.3750056 0.97757089 -0.036037195 0.20750056 0.0027846326
0.083819084 -0.015594597 0.37555182 -0.97676122 -0.04285612 0.21000201 0.0028134047
-0.083431982 -0.0056249965 0.37495151 0.9783805 -0.024799414 0.20532095 0.0049942299
0.083541624 -0.0055234134 0.37580827 -0.98314577 -0.017394722 0.18199377 0.0038410416
-0.08325085 0.0039177141 0.37397641 0.97633111 0.011075521 0.21599753 0.0031474249
0.083398074 0.0054660481 0.37473127 -0.97855788 0.0308637 0.20364654 0.0026711882
-0.083744042 0.015785025 0.37493324 0.98093605 0.053744473 0.18675116 0.0040139528
0.083636597 0.012855607 0.37478963 -0.97795647 0.035449151 0.20577802 0.0027239933
-0.084483713 0.026018998 0.37504926 0.97555131 0.081962965 0.20391577 0.0024783402
0.084412925 0.025245966 0.37505725 -0.97978705 0.069750734 0.18748908 0.0035867561
-0.085386381 0.034895651 0.37563923 0.97626507 0.1082332 0.18759574 0.0036134885
0.085182019 0.033768173 0.37487498 -0.97671419 0.097024865 0.1913518 0.0037729763
-0.086819693 0.045177173 0.37622312 0.97460383 0.15074435 0.16560055 0.0053505092
0.086762056 0.04569836 0.37516898 0.96809411 -0.13778481 -0.20930646 0.0030663193
-0.088399351 0.056175534 0.37517908 0.96403432 0.19392197 0.18174757 0.0046783732
0.088243052 0.055260088 0.37494162 -0.96621692 0.17750128 0.18686424 0.0041479147
-0.09080907 0.06721621 0.37598234 0.95619696 0.22675228 0.1851237 0.0033862437
-0.089975126 0.06506297 0.37324071 0.95655626 0.2204705 0.19076923 0.0038333389
0.08927571 0.061963413 0.37310004 0.95671582 -0.19833674 -0.21297258 0.003415555
0.090966664 0.066780448 0.37790644 -0.96695334 0.21487129 0.13722776 0.004186396
-0.092156217 0.07293544 0.37666243 0.96092641 0.23502845 0.14622582 0.0037494574
0.092729516 0.076343082 0.37498686 0.94862175 -0.24889891 -0.19536139 0.0030877709
-0.094983846 0.084619157 0.37484369 0.94884712 0.25961348 0.17969406 0.00265961
0.095244452 0.085564673 0.37477335 0.94453961 -0.27147549 -0.18478632 0.0028477497
-0.098237239 0.095641255 0.37499782 0.94553351 0.2781367 0.16913442 0.0035891903
0.098297857 0.096094355 0.37436134 -0.94477487 0.28892729 0.15466613 0.0037760499
-0.10141087 0.10488147 0.37497562 0.96755707 0.19124916 0.16509698 0.013527293
-0.099882342 0.10086976 0.37413764 -0.94485891 -0.26750663 -0.18889658 0.0037611183
0.099410474 0.10077348 0.37081188 -0.95223927 0.24006785 0.18870009 0.005939601
0.10209402 0.10670349 0.37527215 -0.97848064 0.13836665 0.15306935 0.016908994
-0.10494104 0.11484978 0.37622717 0.99500728 -0.056252848 0.08243946 0.029192403
0.10475601 0.11475219 0.3752833 -0.98822135 -0.072088182 0.13498874 0.030882413
-0.10352071 0.12507294 0.37377855 0.9355436 -0.32273433 0.14352971 0.043090302
0.099942096 0.12951592 0.37568057 -0.86340159 -0.48066255 0.15330088 0.037799269
0.10417411 0.12388173 0.37331894 -0.92591655 -0.33816236 0.16829966 0.039610479
-0.095334768 0.13376048 0.37464526 0.77497196 -0.61377394 0.15066519 0.021845995
-0.089336067 0.13886216 0.37274063 0.66768563 -0.72652042 0.16236988 0.007209722
0.089261562 0.13930555 0.37618685 -0.6756174 -0.72830778 0.11449345 0.0062322961
0.094939046 0.13433978 0.37658784 -0.75443637 -0.64240801 0.13467641 0.019582868
-0.083427474 0.14366271 0.37401661 0.59669757 -0.79099101 0.13522285 0.001803747
-0.076563761 0.14882323 0.37576294 0.5559966 -0.82326037 0.11449955 0.0018063042
0.076697581 0.14843763 0.37337831 -0.54460019 -0.82584459 0.14625819 0.0017423534
0.083208613 0.14401434 0.37557247 -0.59993052 -0.79224139 0.11152162 0.0019719137
-0.071858481 0.15182181 0.37483805 0.52641469 -0.83882564 0.13877706 0.0019012836
-0.0657712 0.15546359 0.37520024 0.50388336 -0.85573912 0.11752457 0.0019377003
-0.059288397 0.15893713 0.3748647 0.44879615 -0.88301861 0.1373322 0.0018905839
0.058964357 0.158721 0.37265801 -0.44178945 -0.88316637 0.15760487 0.0019161756
0.064285405 0.15613365 0.37397778 -0.48479497 -0.86212438 0.14736161 0.001860556
0.073044233 0.15112518 0.37506935 -0.53772759 -0.83548456 0.11320139 0.0018819864
-0.054273691 0.16131438 0.37445846 0.42683062 -0.89322102 0.14132182 0.001702168
-0.045660485 0.16536246 0.37644303 0.36714426 -0.92085898 0.13123976 0.0019169528
-0.037728574 0.16833702 0.37663248 0.31434396 -0.94229919 0.11515214 0.0021405297
0.036076814 0.16849969 0.3739112 -0.31483543 -0.93613309 0.1566315 0.0021929361
0.044390325 0.16569482 0.37541142 -0.36165416 -0.92436403 0.12148016 0.0021349571
0.052376259 0.16211525 0.3740074 -0.40583786 -0.90336233 0.13867997 0.0017491759
-0.031193471 0.17051046 0.37700841 0.26926619 -0.95472735 0.1264573 0.0024608735
