# .PCD v0.7 - Point Cloud Data file format
VERSION 0.7
FIELDS x y z normal_x normal_y normal_z curvature
SIZE 4 4 4 4 4 4 4
TYPE F F F F F F F
COUNT 1 1 1 1 1 1 1
WIDTH 570
HEIGHT 1
VIEWPOINT 0 0 0 1 0 0 0
POINTS 570
DATA ascii
-0.39279956 -0.064836822 -0.015700471 0.026538905 0.83667135 0.54706186 0.019676479
-0.38540962 -0.065457694 -0.014862584 -0.0018969382 0.84450972 0.53553689 0.020590492
-0.37750408 -0.066409163 -0.013518345 -0.00072412199 0.86955309 0.49383891 0.026580058
-0.36510307 -0.065750413 -0.014890119 0.048810855 0.89534867 0.44268298 0.047540169
-0.35470572 -0.065494515 -0.015633814 0.11216334 0.86162627 0.49499467 0.16467722
-0.34420618 -0.065191828 -0.016412787 0.2882936 0.87568074 0.38738877 0.22913633
-0.33662122 -0.065248922 -0.015485491 -0.036892921 0.886172 0.46188539 0.26910204
-0.32459354 -0.065784439 -0.015884195 -0.043108109 0.85643172 0.51445735 0.14563616
-0.31225133 -0.067022495 -0.014100716 -0.023908759 0.90678823 0.42090797 0.041265283
-0.30343214 -0.066546656 -0.015067767 0.039399303 0.88124931 0.47100669 0.027468121
-0.29606694 -0.06724634 -0.01403344 0.0020387282 0.90771574 0.4195807 0.028432447
-0.28414708 -0.067183353 -0.014369496 -0.026251933 0.90433335 0.42601883 0.031042077
-0.27484667 -0.066499107 -0.015704287 0.0014209927 0.88222295 0.47082973 0.030946793
-0.26458398 -0.067167141 -0.014852069 0.048647515 0.86362273 0.50178587 0.021101482
-0.25506192 -0.067545228 -0.014376167 0.0053985277 0.88254863 0.47019032 0.021403553
-0.24546391 -0.067489631 -0.014654923 0.0068455222 0.91309595 0.40768731 0.025003675
-0.23461616 -0.06735754 -0.015033411 0.021409262 0.88350308 0.46793583 0.025742326
-0.22499949 -0.067016564 -0.015737766 0.020461161 0.8497507 0.52678746 0.020419829
-0.216057 -0.067283541 -0.015430517 0.016049068 0.84075582 0.54117662 0.017408002
-0.20631544 -0.068137161 -0.014168634 -0.01109215 0.8949551 0.4460184 0.02585553
-0.19422515 -0.067079745 -0.016090035 0.013819546 0.82053173 0.57143378 0.020637138
-0.18530509 -0.067683741 -0.015227215 -0.0053518573 0.87451589 0.48496729 0.023371192
-0.17624088 -0.06648761 -0.017331285 0.008495898 0.85008287 0.52658039 0.033045173
-0.16538495 -0.068019703 -0.014913736 0.038229119 0.92224324 0.38471529 0.02319725
-0.15688609 -0.067880042 -0.015219438 0.01158056 0.90877169 0.41713297 0.028597737
-0.14576709 -0.068237118 -0.014730079 -0.00074492954 0.90046608 0.43492553 0.02236058
-0.13369562 -0.066722222 -0.017333273 0.019169411 0.84402668 0.53595859 0.025207143
-0.12624805 -0.066948101 -0.017027395 0.0024642642 0.83530313 0.5497843 0.020930894
-0.11441642 -0.067762002 -0.015791738 0.0043013683 0.85780358 0.51395959 0.025163645
-0.10408798 -0.068053208 -0.015403878 -0.0074437619 0.88949567 0.45688292 0.021970456
-0.095446847 -0.066441812 -0.018131023 -0.019249897 0.82211548 0.5689953 0.024645956
-0.083892085 -0.068752639 -0.014374888 -0.0013707011 0.91972119 0.39256978 0.028686475
-0.077118576 -0.067501456 -0.016456304 -0.016819898 0.85839128 0.51271969 0.025305556
-0.064644925 -0.068270043 -0.015227058 -0.0015363072 0.90584636 0.42360353 0.024299571
-0.054709308 -0.067659207 -0.016262878 0.026945289 0.86564606 0.4999308 0.021430923
-0.044485871 -0.068711601 -0.014559391 0.014810983 0.89784044 0.44007188 0.021703493
-0.035109226 -0.06822864 -0.015382873 -0.028912425 0.88681895 0.46121168 0.021668686
-0.025936648 -0.06774804 -0.016201871 -0.0071855695 0.88226169 0.47070441 0.02562971
-0.01526764 -0.068452202 -0.015071479 0.0052303919 0.90243995 0.43078387 0.023782346
-0.0042506969 -0.068257429 -0.015380654 0.034574583 0.90130329 0.43180665 0.022970045
0.004929618 -0.068433113 -0.01506398 0.0039672325 0.90352809 0.42851052 0.02712827
0.015421283 -0.067724288 -0.016200667 -0.016129244 0.87605435 0.48194245 0.029638819
0.025157053 -0.06804055 -0.015650745 -0.0077263401 0.88916814 0.45751542 0.027138602
0.035596389 -0.067750953 -0.016096884 0.0033330973 0.8931241 0.44979802 0.030169159
0.044233449 -0.068180457 -0.015363663 -0.013302512 0.90294337 0.42955366 0.024664152
0.054075055 -0.067247868 -0.01687092 -0.025185427 0.87956804 0.47510606 0.028532013
0.067251943 -0.067831025 -0.015870035 0.0086362455 0.89068764 0.45453373 0.026965907
0.074664444 -0.067252502 -0.016770236 -0.0013228251 0.87613702 0.48206028 0.030911174
0.084358729 -0.06831938 -0.014926336 0.019977981 0.8736518 0.48614141 0.028872136
0.095026903 -0.067989118 -0.015375537 0.018257888 0.87903315 0.47641101 0.022324942
0.10562303 -0.067728579 -0.015710499 -0.030253274 0.87531155 0.48261204 0.020821115
0.11497331 -0.068139128 -0.014950928 0.0052264552 0.88372606 0.46797532 0.026928371
0.12481878 -0.066238426 -0.017994752 -0.011405542 0.84786934 0.53008264 0.030353988
0.13593945 -0.067144677 -0.016402779 -0.0014266778 0.85877663 0.51234818 0.032145362
0.14759748 -0.067816801 -0.015191717 0.0065696044 0.86595154 0.50008464 0.021986967
0.15554288 -0.067665897 -0.015340349 0.0055700988 0.86539114 0.50106603 0.023471557
0.16382422 -0.06711638 -0.016122892 -0.017374251 0.83435196 0.55095822 0.021080121
0.17575926 -0.067285426 -0.015667379 -5.2016971e-05 0.83117747 0.55600727 0.018700326
0.18415444 -0.067886367 -0.014552838 -0.025524152 0.89441681 0.44650534 0.027416764
0.19506334 -0.06672404 -0.016306007 0.0086344229 0.86556405 0.50072378 0.024949016
0.20573343 -0.067256123 -0.01527118 -0.020670507 0.87813509 0.47796592 0.024918627
0.21513879 -0.067722932 -0.014302561 0.010518628 0.92312688 0.38435149 0.025751257
0.22474939 -0.066794872 -0.015749108 0.00051458791 0.90962481 0.41543043 0.019198492
0.23672898 -0.06813658 -0.013236707 0.023858732 0.93318433 0.35860536 0.025737563
0.24547617 -0.067981765 -0.013313047 -0.022944871 0.93066758 0.36514574 0.028730234
0.25285167 -0.066646352 -0.015375853 -0.039998654 0.87186867 0.48810369 0.021972574
0.26482487 -0.067346916 -0.013998359 -0.028200367 0.89576501 0.44363242 0.025875444
0.27393633 -0.066677146 -0.014940591 -0.0081990054 0.86254597 0.5059123 0.02342326
0.285795 -0.065869145 -0.016049469 -0.018393494 0.86385286 0.50340825 0.02038171
0.29547605 -0.066274166 -0.015181207 -0.0083460836 0.87343442 0.48687032 0.019958399
0.30599275 -0.066819377 -0.014052475 0.0041020699 0.918006 0.39654535 0.019712919
0.31598121 -0.065162472 -0.016570833 -0.028176198 0.86148268 0.50700468 0.020896953
0.32451794 -0.066076905 -0.014836426 -0.013274703 0.86533344 0.50102085 0.021030072
0.33710164 -0.065715805 -0.015095418 0.011196463 0.87585145 0.48245081 0.025282532
0.34597853 -0.065203205 -0.01566728 0.016677232 0.85487205 0.51857078 0.019453488
0.35432738 -0.066190161 -0.013811808 -0.029901579 0.91922909 0.39258593 0.02532294
0.36630413 -0.064887546 -0.015680449 -0.0021002782 0.85553926 0.51773363 0.018059179
0.3753885 -0.065966241 -0.013660774 -0.035658635 0.89850003 0.43752256 0.028466621
0.38673526 -0.065632179 -0.013901155 -0.011885506 0.8823874 0.47037351 0.033209506
0.39625603 -0.064005747 -0.016320458 -0.023923637 0.84526932 0.53380466 0.021078985
0.40467334 -0.065223381 -0.014042974 0.0021939143 0.88337225 0.468667 0.029133994
0.41475415 -0.065032899 -0.01401529 -0.043520518 0.88271135 0.46789601 0.036238741
0.42542946 -0.06331756 -0.01645679 -0.032809604 0.8277337 0.56016111 0.021274609
0.43449086 -0.064378038 -0.014461234 -0.016152224 0.88920063 0.45723233 0.037176106
0.44654363 -0.063995466 -0.014699767 -0.012432357 0.8559013 0.51698971 0.02965484
0.45469803 -0.063079871 -0.015942167 -0.060520854 0.83257216 0.55060041 0.019413549
0.46430376 -0.063519739 -0.014904057 -0.077839121 0.85979402 0.50467342 0.025238609
0.47448614 -0.063392662 -0.014437798 -0.20854877 0.86575615 0.45494366 0.034059841
0.48494515 -0.061616734 -0.012071308 -0.49001372 0.8006779 0.34467584 0.042588145
-0.5 -0.054764986 -0.014808455 0.84312087 0.44334292 0.30429301 0.14885122
-0.48102805 -0.054079793 -0.014817036 0.64388388 0.62594116 0.44001272 0.19496357
-0.33933654 -0.055559069 -0.014048972 0.11466927 0.85734928 0.50179982 0.25979555
0.48488101 -0.05840949 -0.017198004 -0.51078433 0.67753357 0.52919531 0.037119683
0.49226251 -0.053495899 -0.01637649 -0.64976299 0.58508641 0.48526493 0.037254285
-0.5 -0.04589133 -0.015105873 0.87094724 0.364182 0.32988223 0.15182631
-0.48102802 -0.045026224 -0.017145263 0.7331028 0.42308873 0.53249997 0.2024353
-0.33933651 -0.044914734 -0.014979284 0.9999761 0.0064104889 0.0025745886 0.18691009
0.49673781 -0.047589935 -0.014952074 -0.77321547 0.47329381 0.42205536 0.036536917
-0.5 -0.036900405 -0.015651342 0.98717129 0.12381889 0.1008046 0.18708105
-0.48102805 -0.035229832 -0.014882013 0.91394651 0.22991575 0.33442554 0.19143431
-0.33933654 -0.033333246 -0.014047648 0.99892318 -0.046388283 -0.0007515591 0.089112982
0.49907914 -0.038574755 -0.01855764 -0.84627962 0.2945703 0.4438909 0.038517121
0.5 -0.03774761 -0.011447887 -0.9641459 0.15690008 0.21402098 0.045293957
-0.5 -0.025970003 -0.015672816 0.99097848 0.078923158 0.10831817 0.16632588
-0.48102805 -0.024967516 -0.015854094 0.9244718 0.029119274 0.38013661 0.17859459
-0.33933648 -0.025069291 -0.013879391 0.99888092 -0.0075955563 -0.046681546 0.057741798
0.49998459 -0.027204532 -0.019768087 -0.96858639 0.048138902 0.24397366 0.062355712
0.5 -0.024789771 -0.015381156 -0.97755903 0.030240946 0.20847987 0.075947329
-0.5 -0.014875206 -0.014114075 0.99795061 -0.06398838 0.00040393759 0.17915033
-0.48102805 -0.014733206 -0.013213573 0.98134625 -0.047833569 0.18620329 0.18810642
-0.33933654 -0.016319443 -0.018037377 0.99895853 0.04297056 -0.015338102 0.085683726
0.5 -0.013832316 -0.014326079 -0.98542005 0.00035496496 0.1701387 0.064978726
-0.5 -0.004960143 -0.014889109 0.98746264 -0.037852135 0.1532474 0.16962247
-0.48102805 -0.0041347104 -0.015025139 0.94654065 -0.01760219 0.32210383 0.195648
-0.33933657 -0.0059589809 -0.01633152 0.99952835 0.018859854 -0.024235198 0.074751146
0.5 -0.0033703691 -0.013171115 -0.97978985 -0.019496854 0.19907732 0.066280685
-0.5 0.003170542 -0.013153951 0.99319428 -0.0156553 0.11541275 0.16880135
-0.48102802 0.0022708979 -0.014261335 0.96405989 -0.014678192 0.26527938 0.18755206
-0.33933657 0.0041242596 -0.015883811 0.99814057 0.056555148 -0.022737429 0.10818757
0.49979165 0.008012834 -0.017359877 -0.93730718 -0.16487893 0.30703443 0.036703084
0.5 0.0026120613 -0.014189698 -0.97235751 -0.071091719 0.22241139 0.051145617
-0.5 0.016002921 -0.014975626 0.96270925 -0.11846287 0.24322297 0.15842369
-0.48102802 0.013721149 -0.014168534 0.88199025 -0.22503826 0.41406658 0.19816393
-0.33933657 0.014142149 -0.014750159 0.99622357 0.086663842 -0.0053019077 0.18470073
0.49925449 0.014893299 -0.014265862 -0.8889491 -0.29961014 0.34641477 0.032466605
0.5 0.010240829 -0.011872864 -0.96052152 -0.17123176 0.2192672 0.043295939
-0.5 0.024288081 -0.012953949 0.88083512 -0.37721792 0.28607011 0.14367743
-0.48102805 0.023753161 -0.013871687 0.72881359 -0.45935512 0.50776327 0.19529182
-0.33933654 0.022739595 -0.014455752 0.98738647 -0.084195547 0.13408644 0.26827967
0.48974746 0.028720796 -0.015866473 -0.57487428 -0.66683638 0.47418216 0.039676178
0.49390206 0.025645159 -0.013643888 -0.73275614 -0.57749146 0.35996118 0.042555574
-0.49682611 0.034972038 -0.014605065 0.85762548 -0.47358176 0.20049652 0.14539279
-0.48412228 0.036068823 -0.01331395 0.8341791 -0.5204156 0.1825178 0.21763408
-0.47400919 0.036241136 -0.014823047 0.10776573 -0.85976887 0.49918339 0.23625487
-0.46506605 0.035589945 -0.016187692 -0.038021952 -0.85267782 0.52105165 0.15678695
-0.45519596 0.036702178 -0.014677333 -0.053773172 -0.89737022 0.43798983 0.042502157
-0.44288498 0.037019897 -0.014555582 0.042480469 -0.91960955 0.39053002 0.036821164
-0.43503839 0.03712948 -0.014631068 0.041807335 -0.89503217 0.44403788 0.032150142
-0.42770678 0.036467008 -0.015916515 0.019049436 -0.87558085 0.48269585 0.027474942
-0.41447273 0.037573237 -0.01454524 -0.0077961455 -0.92690194 0.37522256 0.021095371
-0.40423268 0.035743359 -0.017834077 0.020178262 -0.83474582 0.55026567 0.029125359
-0.3953059 0.037422702 -0.01529704 0.018113758 -0.85679758 0.51533473 0.025449343
-0.38493007 0.038198389 -0.014304672 0.01786647 -0.87684107 0.48044828 0.028386936
-0.37520427 0.037867684 -0.015109142 0.014873762 -0.83843601 0.54479706 0.021498621
-0.36330414 0.037071992 -0.016737718 0.030440835 -0.81687129 0.57601613 0.042376406
-0.35741523 0.03735929 -0.016421597 0.06004668 -0.78816605 0.61252648 0.11960439
-0.34578168 0.037182398 -0.017023576 0.19716559 -0.80320734 0.56212431 0.24224786
-0.33686 0.036336854 -0.015200812 0.15346892 -0.86044133 0.48588899 0.22767198
-0.32467327 0.037170976 -0.01753051 -0.074405044 -0.81362963 0.57660276 0.17825641
-0.31394988 0.036819305 -0.018332519 0.014601802 -0.82338184 0.56729978 0.044285636
-0.30393487 0.038559549 -0.015673384 0.039445486 -0.88890326 0.45639351 0.02909904
-0.29367924 0.038586196 -0.015842399 0.016437305 -0.88155675 0.47179195 0.029486902
-0.28591582 0.038106851 -0.016793294 -0.012453944 -0.86661613 0.49882001 0.029404579
-0.27540007 0.038483649 -0.016390832 0.0071629342 -0.8652041 0.50136864 0.027694227
-0.2647616 0.038187571 -0.017099487 -0.0057930718 -0.86298889 0.50518984 0.029415604
-0.2523917 0.038992953 -0.016007721 0.019962005 -0.88593465 0.46338043 0.02472459
-0.24410522 0.03827858 -0.017307535 0.034212939 -0.84618813 0.53178489 0.024618233
-0.23212701 0.038935419 -0.016403018 0.029815687 -0.89814663 0.43868396 0.024738533
-0.22394998 0.038705122 -0.016903693 -0.013000512 -0.86521417 0.50123394 0.033402104
-0.21556512 0.038534932 -0.017308425 -0.017304474 -0.84454268 0.53520858 0.027773943
-0.20296013 0.038390327 -0.017733585 -0.0020747404 -0.81702042 0.57660484 0.019897204
-0.19721822 0.038210351 -0.018115239 0.0084642693 -0.82016933 0.5720582 0.020820638
-0.18048851 0.037940983 -0.018807111 0.010756514 -0.81605333 0.57787651 0.019928286
-0.17560875 0.038855731 -0.01736781 0.0051149419 -0.87369233 0.48645198 0.023856282
-0.16675626 0.038727377 -0.017667904 -0.0057093315 -0.86165631 0.50746012 0.021882487
-0.15331875 0.038649607 -0.017915582 -0.0034534833 -0.84182614 0.5397377 0.025066568
-0.14293793 0.038501989 -0.018251136 -0.0049604545 -0.82064122 0.57142222 0.020472474
-0.13436483 0.03890942 -0.017656168 -0.00497304 -0.8202855 0.57193267 0.021727774
-0.12557206 0.039016254 -0.017558383 0.013735646 -0.86611277 0.4996599 0.022769753
-0.11671438 0.038924485 -0.017788384 0.0099088093 -0.83136284 0.55564171 0.021475622
-0.10377897 0.038906548 -0.017933017 -0.010398995 -0.85313928 0.52157956 0.027626362
-0.095586471 0.038951375 -0.017929047 -0.0038636154 -0.84682167 0.53186297 0.018168675
-0.086419813 0.038825158 -0.018180214 -0.0054102801 -0.84581685 0.53344595 0.026312897
-0.071501344 0.039897338 -0.016458053 0.00045428949 -0.88994426 0.45606908 0.025614159
-0.065247677 0.038865667 -0.018176291 -0.00378289 -0.8171832 0.57636559 0.020147959
-0.05551412 0.038824651 -0.018272733 -0.0010896479 -0.8192867 0.57338303 0.019494306
-0.044698227 0.039398529 -0.017359352 -0.0097041493 -0.86540264 0.50098312 0.023301017
-0.034057826 0.039059781 -0.017949006 0.00043902113 -0.8203249 0.57189763 0.023845388
-0.025042182 0.039138958 -0.017845297 -0.0042522824 -0.83021617 0.55742526 0.022595903
-0.016809039 0.039986327 -0.016473681 0.0039173923 -0.86851841 0.49564132 0.025226943
-0.0016561513 0.039248813 -0.017671971 -0.0033456795 -0.80920267 0.58752 0.019238997
0.0051173321 0.039100822 -0.017895699 0.030602336 -0.82439601 0.56518549 0.020483114
0.01570203 0.038751978 -0.018439023 -0.0096419826 -0.83542895 0.54951394 0.018443901
0.02552088 0.038555313 -0.018733904 -0.0042890054 -0.8044799 0.59396446 0.022532884
0.033034414 0.038870115 -0.018192977 -0.022461224 -0.84933507 0.52737606 0.024225095
0.045808803 0.039289061 -0.017464869 0.0057600304 -0.87160379 0.49017712 0.023913424
0.059563644 0.03867694 -0.018432539 0.0076611494 -0.83633709 0.5481621 0.01943244
0.068430349 0.038656205 -0.018439522 -0.0011827954 -0.84971493 0.52724105 0.01706942
0.071420312 0.038920835 -0.017982818 -0.013727276 -0.87135655 0.49045828 0.021901555
0.085228302 0.038142461 -0.019142348 -0.00034295922 -0.78764224 0.61613274 0.022274531
0.095805764 0.039336812 -0.017080538 0.006061167 -0.82063979 0.57141358 0.019266365
0.10333971 0.038734823 -0.018005295 0.019604489 -0.81985581 0.57223427 0.024063958
0.11460842 0.038404923 -0.018448545 8.252776e-05 -0.80841225 0.58861673 0.021668117
0.12382724 0.038307898 -0.018526379 -0.013125326 -0.80900049 0.5876615 0.022351544
0.13085218 0.039045453 -0.017248753 -0.017942391 -0.87678075 0.48055556 0.023281906
0.1449966 0.038472507 -0.018066851 0.0032236455 -0.84161681 0.54006553 0.024176814
0.15366398 0.038474131 -0.017968925 -0.040641107 -0.84562135 0.53223372 0.02868804
0.16499516 0.038811523 -0.017245037 -0.0036501547 -0.85105509 0.52506375 0.025065698
0.17456137 0.03852158 -0.017580858 -0.011172611 -0.80269396 0.59628659 0.021207707
0.18915777 0.038989305 -0.016593823 -0.00040502305 -0.8589288 0.51209497 0.029191958
0.19424593 0.038807914 -0.016817212 -0.033031557 -0.87218118 0.48806638 0.031342525
0.20739821 0.036918547 -0.019734915 0.011079106 -0.8055557 0.59241647 0.022739682
0.21641617 0.037867155 -0.018038355 -0.011064378 -0.81207013 0.58345491 0.021901904
0.22601631 0.037850656 -0.017923176 0.014982266 -0.84243816 0.53858477 0.027684808
0.23415025 0.038341276 -0.016978914 -0.019992219 -0.85120398 0.52445412 0.031958461
0.24673548 0.037846148 -0.017535554 -0.0018646385 -0.84224325 0.53909439 0.026122699
0.25390032 0.037931781 -0.017245729 -0.011927824 -0.83124226 0.55578232 0.025801092
0.26566267 0.037657015 -0.017454216 -0.010585004 -0.86121166 0.50813627 0.028237095
0.27556923 0.038084406 -0.016544417 0.010513959 -0.85989296 0.51036614 0.027785612
0.28658861 0.037782662 -0.016812772 -0.014302428 -0.83614683 0.54831922 0.027060617
0.2937158 0.037368681 -0.017346837 -0.032093432 -0.8414374 0.53940076 0.026444979
0.30431938 0.038657606 -0.015003189 0.0074032848 -0.89774817 0.44044685 0.025546873
0.3141425 0.037927672 -0.015992438 -0.0010785013 -0.86793667 0.49667376 0.028749239
0.32480332 0.038281422 -0.015129182 -0.022426965 -0.86516726 0.50098169 0.026871013
0.33371189 0.037816949 -0.015654525 -0.015530766 -0.8496204 0.52716607 0.026180506
0.34363779 0.037180908 -0.016439503 -0.027503353 -0.8138234 0.58046091 0.021836614
0.35585222 0.036834795 -0.016683666 -0.015746834 -0.81216997 0.58320838 0.021247806
0.36652347 0.037003603 -0.016120695 -0.0027793464 -0.83546656 0.54953438 0.020115143
0.37671202 0.037271161 -0.015383975 0.015084163 -0.82928169 0.55862725 0.022347661
0.38594803 0.037248429 -0.015198804 0.0031748575 -0.84686673 0.53179568 0.02639544
0.39336601 0.037152097 -0.015156854 -0.025340168 -0.85635644 0.5157631 0.023128301
0.4056873 0.036312576 -0.016114794 -0.0013156853 -0.85824203 0.5132435 0.025523912
0.41473633 0.036158055 -0.016032379 -0.04771775 -0.87202591 0.48712811 0.021238822
0.4256064 0.036567062 -0.015072091 -0.041216291 -0.85906374 0.51020664 0.026145039
0.43436205 0.036216527 -0.015341137 -0.021036103 -0.84833252 0.52904576 0.022399398
0.44406092 0.03627206 -0.014962424 -0.027790159 -0.84957045 0.5267427 0.022419004
0.45634642 0.035112794 -0.016405702 -0.01749154 -0.83891004 0.54398906 0.018599762
0.46431193 0.035232667 -0.015955646 -0.089640625 -0.83434981 0.54389793 0.01847473
0.47508451 0.034758486 -0.016048329 -0.18604393 -0.8315255 0.52340525 0.025031125
0.48345295 0.032565959 -0.015503998 -0.42298523 -0.76677829 0.48283997 0.035345051
0.49240172 0.030044539 -0.010133369 -0.6272741 -0.70246816 0.3362523 0.038178265
-0.48102805 0.04526934 -0.013946308 0.96732569 -0.2535111 -0.0036358065 0.29254025
-0.41221225 0.04012299 -0.010331001 0.0109115 -0.95501614 0.29635298 0.02258623
-0.39330554 0.040408749 -0.010329497 0.029850036 -0.93860215 0.34370783 0.035253722
-0.38137418 0.040115036 -0.011241911 0.023639129 -0.92490262 0.37946847 0.033534683
-0.37239715 0.04071261 -0.010390813 0.043501627 -0.95018792 0.30862707 0.033747081
-0.3615278 0.040773146 -0.010630278 0.073932484 -0.94320357 0.32388425 0.10072619
-0.34397253 0.040781572 -0.011142214 0.40174869 -0.84674954 0.34873077 0.24834374
-0.33939269 0.044296402 -0.014110616 0.3951346 -0.854738 0.33658838 0.27937716
-0.32531145 0.040623959 -0.011755093 0.1418476 0.95021307 -0.27744272 0.14973307
-0.31425688 0.04083043 -0.011589807 -0.096474707 -0.93445396 0.34276581 0.058111988
-0.30642566 0.040445894 -0.012513906 0.037101071 -0.93400395 0.35533109 0.038309183
-0.29664546 0.04075456 -0.012208421 -0.0046877265 -0.93548155 0.35334453 0.029251294
-0.28607729 0.041788377 -0.010677999 0.027675333 -0.94332367 0.33071816 0.03344091
-0.27533734 0.040613275 -0.012883572 -0.023141069 -0.92414874 0.38133138 0.032755967
-0.26481697 0.041297778 -0.011974256 0.01738981 -0.92492473 0.37975234 0.032129742
-0.25625709 0.041223496 -0.012253574 -0.0023543427 -0.92185336 0.3875317 0.032706637
-0.24409811 0.041092712 -0.012600831 0.041929848 -0.92261571 0.3834348 0.031779487
-0.23278743 0.040688396 -0.013505193 0.033886138 -0.91147548 0.40995622 0.026879326
-0.22447348 0.041762635 -0.011793052 -0.00060612563 -0.95620239 0.29270566 0.032630015
-0.21425743 0.041159753 -0.01293824 0.0030393354 -0.92598534 0.37754729 0.034200527
-0.20383048 0.041501556 -0.012578858 -0.0026132483 -0.92756528 0.37365207 0.032444198
-0.19266351 0.041253079 -0.013169888 0.036822345 -0.91107535 0.41059205 0.02571322
-0.18510647 0.040614426 -0.014334129 0.0033564058 -0.91089505 0.41262439 0.029097138
-0.17282169 0.041803788 -0.012483388 0.026869077 -0.91078615 0.41200325 0.025870984
-0.16602594 0.041789316 -0.012629861 -0.0039878399 -0.930848 0.36538476 0.02992237
-0.15725181 0.041090395 -0.013859391 -0.027686588 -0.90893978 0.41600698 0.02417599
-0.14448881 0.041335899 -0.013408645 0.0043365294 -0.90514874 0.42507291 0.027155243
-0.1335571 0.041400816 -0.013478055 0.025736647 -0.9096812 0.41450903 0.026606077
-0.12416974 0.041385368 -0.013598266 0.0018043082 -0.91145056 0.41140565 0.028558385
-0.11357035 0.041894034 -0.012845936 0.029490292 -0.92621619 0.37583762 0.034529533
-0.10549952 0.042046998 -0.012677765 -0.019874282 -0.91355723 0.40622449 0.028579533
-0.093973637 0.042755585 -0.011566771 0.009317481 -0.93754059 0.34775111 0.033188339
-0.085017137 0.042118508 -0.0127001 0.0046877107 -0.91090953 0.41257933 0.028159956
-0.073642083 0.042368487 -0.012380462 0.014239118 -0.92688727 0.37506968 0.032553945
-0.066055946 0.042080924 -0.012777717 -0.0038515409 -0.92682171 0.3754819 0.035468578
-0.05509742 0.041502472 -0.013862242 -0.026673045 -0.91485214 0.40290698 0.029524658
-0.043720793 0.042104732 -0.012724814 0.0045360103 -0.91385609 0.40601292 0.027401356
-0.034101225 0.041492026 -0.013872475 0.028611841 -0.90902376 0.41576096 0.030420974
-0.024847992 0.042760596 -0.011689288 0.04859798 -0.93532372 0.35043943 0.025179744
-0.015388568 0.042629737 -0.012086627 -0.00024378256 -0.93235201 0.36155185 0.024944115
-0.0059380052 0.042246327 -0.012668972 -0.015480777 -0.91087371 0.41239491 0.026811091
0.0049293688 0.042023595 -0.012965155 -0.012784688 -0.91444016 0.4045192 0.028856212
0.013781444 0.041466203 -0.013973029 -0.032565366 -0.91523033 0.40161297 0.026452197
0.023696015 0.041853171 -0.013254178 -0.0059856102 -0.91046166 0.41355014 0.029755514
0.035881255 0.041703321 -0.013516814 0.023646813 -0.91029924 0.41327488 0.026475882
0.045278508 0.041958496 -0.01306853 0.015722711 -0.91376752 0.40593308 0.027435539
0.055413935 0.042402506 -0.012306949 0.027113931 -0.91497636 0.40259543 0.029524622
0.065130211 0.041699793 -0.013435821 0.0084417993 -0.9108001 0.41276127 0.028712176
0.076689057 0.042479835 -0.011950261 0.011585093 -0.93175012 0.36291525 0.03181199
0.084223703 0.042376287 -0.011990516 -0.017389387 -0.91601282 0.4007718 0.025025802
0.094269551 0.042603027 -0.011665679 -0.02831379 -0.93773389 0.3461985 0.031766396
0.10636216 0.041398238 -0.013542186 -0.018432343 -0.91857648 0.39481315 0.030052524
0.11353073 0.042101581 -0.012367873 -0.020685894 -0.91958517 0.39234573 0.028775264
0.12474428 0.041324567 -0.013548246 -0.010818247 -0.91366339 0.40632766 0.028843379
0.13452481 0.041892253 -0.012525976 -0.017011004 -0.91063958 0.41285124 0.027254857
0.14005947 0.041546371 -0.013046578 -0.017824885 -0.90076995 0.43393067 0.026435168
0.1556026 0.041191209 -0.013446446 -0.0012319429 -0.90664947 0.42188308 0.027126005
0.16380504 0.04168158 -0.012435341 -0.027503546 -0.9285599 0.37016231 0.033924587
0.17394109 0.041017532 -0.013446756 -0.030115994 -0.9048444 0.42467582 0.028452028
0.18374524 0.041608576 -0.012319431 -0.015992764 -0.93186802 0.3624447 0.033746514
0.19460338 0.041366104 -0.012506229 0.0060052187 -0.91099024 0.41238418 0.029501868
0.20706624 0.041555882 -0.012010966 0.030056275 -0.92011195 0.39050058 0.031535648
0.21438622 0.041675501 -0.011780166 0.0056924447 -0.93570876 0.35272768 0.036418535
0.22494626 0.0418007 -0.011358763 0.033719458 -0.92170489 0.38642359 0.03275479
0.236129 0.041913308 -0.010962154 -0.021379035 -0.93902695 0.34317806 0.032338466
0.24361783 0.040993337 -0.012255306 -0.012559838 -0.93271673 0.36039105 0.034176335
0.25370607 0.041152462 -0.011943683 -0.047316272 -0.94084865 0.33550695 0.0301496
0.26480201 0.040946048 -0.011887926 -0.013614004 -0.92806619 0.37216645 0.03075202
0.27447015 0.041521482 -0.010904636 0.0094885705 -0.93020105 0.3669278 0.036071718
0.28968203 0.040375218 -0.012477295 -0.010108044 -0.92947018 0.36875853 0.035227455
0.29493964 0.04122398 -0.010969803 -0.02750152 -0.94328243 0.33085033 0.042360798
0.30246401 0.041380782 -0.010325479 -0.026371544 -0.94613242 0.32270411 0.034521203
0.31482834 0.040543184 -0.011663502 -0.024056548 -0.94092613 0.33775628 0.037984323
0.32542455 0.040463071 -0.011518318 -0.012516538 -0.93455082 0.35560939 0.035856903
0.34209883 0.040425979 -0.011134313 -0.037233278 -0.92200941 0.38537309 0.030040318
0.37491077 0.040197231 -0.010635268 0.00020778351 -0.94110262 0.33812106 0.041155498
0.38310218 0.040261131 -0.010005834 -0.012562186 -0.95141917 0.30764228 0.035291608
-0.48102805 0.054784045 -0.01573118 0.99813962 -0.02475035 -0.055720303 0.12675756
-0.33933654 0.055609718 -0.014645778 0.999542 0.0060692113 -0.029649118 0.15622525
-0.48102805 0.065607294 -0.016057776 0.99996138 0.0053504379 -0.0069725579 0.0035341694
-0.33933657 0.062698856 -0.017619127 0.99864423 0.052030198 0.0015856861 0.054571997
-0.48102805 0.07339441 -0.014002549 0.99999881 -0.0014487676 0.00050535455 0.00051391852
-0.33933657 0.074977376 -0.015717845 1 3.0708525e-05 1.9424767e-06 4.7328591e-05
-0.48102805 0.084397197 -0.014964134 1 6.7180459e-05 0.00015889498 0.00046421209
-0.33933657 0.084837362 -0.014261882 1 3.996976e-05 -6.8762197e-06 9.3361588e-05
-0.48102805 0.094799325 -0.015834594 0.99999946 -0.00011422322 0.0010484405 0.00036038272
-0.33933654 0.094422676 -0.01570187 1 0.000104459 -5.5071549e-05 0.00010087102
-0.48102802 0.10583398 -0.014985944 0.99999958 0.00024802153 0.00090737053 0.00045295994
-0.3393366 0.10466042 -0.015152168 1 5.5498094e-05 -6.4382482e-05 0
-0.48102805 0.11452397 -0.014322068 1 8.5085616e-05 -1.0018703e-05 0.00048069196
-0.3393366 0.11450407 -0.015477985 0.99982637 0.0089437794 -0.016345872 0.0017981676
-0.48102802 0.12771933 -0.016692529 0.99805963 -0.022911247 0.057897139 0.0063182344
-0.33933657 0.12427524 -0.014697816 0.99918991 0.01363905 -0.037861224 0.0028418705
-0.48102805 0.13434532 -0.014118751 0.99520212 -0.053065594 0.082199648 0.017392719
-0.33933654 0.13508897 -0.015961641 0.98646003 0.045845542 -0.15746348 0.03373652
-0.48102805 0.14585584 -0.015947632 0.97722596 -0.12504299 0.17144597 0.041188676
-0.33933657 0.14474258 -0.015204363 0.98238569 0.031844415 -0.18413137 0.040584508
-0.48102805 0.15532248 -0.014757871 0.96875352 -0.073361516 0.23692749 0.054533288
-0.33933657 0.15679365 -0.013290956 0.98220474 0.08343786 -0.1682619 0.038258657
-0.48102802 0.16658667 -0.014873488 0.89487761 -0.17553851 0.41034168 0.094647355
-0.33933657 0.16652928 -0.016097018 0.84702319 0.22973222 -0.47934833 0.10187825
-0.48102805 0.17600197 -0.016789656 0.79388255 -0.28274384 0.53833669 0.10479649
-0.33933651 0.1760045 -0.013617503 0.87867057 0.27358544 -0.39126593 0.076654196
-0.48102802 0.18376109 -0.015484651 0.77071303 -0.33598864 0.54139918 0.0955799
-0.47628498 0.18756115 -0.018562255 0.56546271 -0.41294813 0.71395081 0.086652584
-0.46303448 0.18885441 -0.017848678 0.19899347 -0.49298403 0.84697604 0.041779291
-0.45514798 0.18692301 -0.018914349 0.05750829 -0.47003633 0.88077164 0.0078904433
-0.44374022 0.1864645 -0.019167345 -0.00048277987 -0.47579217 0.87955761 0.00048223219
-0.43391326 0.18717112 -0.018777454 -0.0021114887 -0.47515175 0.87990135 0.00054837053
-0.42743307 0.18706129 -0.018838054 -0.0012341304 -0.47486272 0.88005906 0.00042151523
-0.41546482 0.18699369 -0.01887536 -0.0002071421 -0.47220594 0.88148832 0.00050006696
-0.40426409 0.18764833 -0.01851416 0.0023739873 -0.48483974 0.87459981 0.00045654361
-0.39427504 0.1882318 -0.018192213 0.0018813016 -0.48275957 0.87575096 0.00053849316
-0.38484421 0.18720993 -0.018756043 0.00021670434 -0.47386849 0.88059562 0.00043888841
-0.37433544 0.18766353 -0.018505758 -0.0019799247 -0.48246753 0.87591165 0.00044901232
-0.3645435 0.18742618 -0.018636718 -0.077172533 -0.4736169 0.87734336 0.011452981
-0.35590991 0.18740191 -0.018650118 -0.15429643 -0.45807648 0.87541908 0.025490357
-0.34451959 0.18771048 -0.018479861 0.53152341 0.42185935 -0.73451859 0.071622856
-0.33933657 0.18476003 -0.014608487 0.79898065 0.30907777 -0.51584965 0.078273967
-0.48096976 0.19601376 -0.011683464 0.69889021 -0.475227 0.53452003 0.12928067
-0.47336215 0.19509605 -0.014239107 0.48191202 -0.54971296 0.68233174 0.11658187
-0.46442786 0.19579154 -0.013826917 0.21778132 -0.65293455 0.72542942 0.10071917
-0.45461401 0.19377182 -0.015029499 0.055590805 -0.65986419 0.74932563 0.051758267
-0.44657731 0.19630441 -0.013517042 0.019677205 -0.70442492 0.70950574 0.073504642
-0.43447268 0.19509178 -0.014241222 0.03754402 -0.71257716 0.70058841 0.078518033
-0.42595121 0.1943031 -0.01471018 0.0081177326 -0.69128448 0.7225371 0.071305186
-0.41491336 0.19600457 -0.013701008 -0.0044062687 -0.67216069 0.74039227 0.077299528
-0.40421602 0.19600812 -0.013701807 0.0056032701 -0.70802641 0.70616364 0.082762823
-0.39490885 0.19469829 -0.014478749 -0.025910424 -0.69107717 0.72231632 0.081028536
-0.38350654 0.19453637 -0.014591398 0.024901129 -0.7221002 0.69134015 0.073890865
-0.37507147 0.19568595 -0.013887654 0.081704684 -0.70322049 0.70626146 0.074182265
-0.36124283 0.19436368 -0.014669491 -0.085404687 -0.65620041 0.74973798 0.073657006
-0.35379127 0.1957785 -0.013841163 -0.25112039 -0.63049257 0.73445058 0.10078257
-0.34420976 0.19570397 -0.013882724 0.60503083 0.46619427 -0.64544606 0.094890431
-0.33933654 0.19160865 -0.01223493 0.77472621 0.34785312 -0.52801269 0.088693626
-0.47729751 0.20132379 -0.010454291 0.43950462 -0.65829438 0.61113346 0.13476779
-0.45809352 0.2013703 -0.01042535 0.053768605 -0.71362036 0.69846606 0.091201276
-0.44857094 0.20066768 -0.010886329 0.0095957667 -0.72385442 0.68988603 0.077784158
-0.42338324 0.20160186 -0.010273406 0.035015475 -0.77099317 0.63588011 0.10003967
-0.41748238 0.20164756 -0.010243426 0.024270277 -0.78253305 0.62213576 0.10490116
-0.40602362 0.20025983 -0.011141723 0.0071473736 -0.73106551 0.68226975 0.084615804
-0.39363974 0.20096983 -0.010683399 -0.023703331 -0.74361336 0.66818959 0.085393205
-0.38239002 0.2008954 -0.010736942 0.025782192 -0.74779779 0.66342574 0.086977899
-0.37377673 0.20113249 -0.010580616 0.013131473 -0.76325065 0.64596897 0.096732788
-0.36545691 0.20102227 -0.010652613 0.0046517905 -0.76702344 0.64160228 0.090925612
-0.35484332 0.20145172 -0.010371921 -0.196301 -0.70888746 0.67745441 0.11353996
-0.34820485 0.20121901 -0.010523224 -0.37391946 -0.64429396 0.66713536 0.1418312
-0.47576851 -0.21434796 -0.0047461847 0.61137593 0.78881228 0.063203052 0.069608837
-0.46410403 -0.2163296 -0.0043367608 0.34358466 0.93905497 -0.011195137 0.051880743
-0.45651051 -0.21634012 -0.0060568918 0.17066063 0.98530668 -0.0067596529 0.017520653
-0.44619501 -0.21633133 -0.0046189795 0.012955633 0.99990177 -0.0053511974 0.00024490152
-0.4345333 -0.21633177 -0.0046931617 5.8543967e-05 0.99998122 -0.006128577 0
-0.42480358 -0.2163384 -0.0057742563 0.00012967098 0.99998122 -0.0061251111 0
-0.41429591 -0.21633907 -0.0058792108 5.3686297e-05 0.99998122 -0.0061274022 0
-0.40378332 -0.21632613 -0.0037754648 -2.2117112e-05 0.99998122 -0.0061297887 8.8831712e-06
-0.39535812 -0.21634467 -0.0067989617 -3.5551493e-05 0.99998116 -0.0061306022 1.9527408e-05
-0.38555121 -0.21634138 -0.0062598493 8.1573038e-05 0.99998122 -0.0061282152 0
-0.37452319 -0.21633716 -0.0055718794 -7.989593e-05 0.99998122 -0.0061250571 2.2646891e-05
-0.36618406 -0.21633956 -0.0059622815 -0.10183806 0.99472445 -0.01233844 0.010664136
-0.35349065 -0.21632463 -0.0035273028 -0.38936728 0.9208442 0.020955892 0.044477392
-0.34327143 -0.21344295 -0.0038601202 0.71584535 -0.6982308 0.0062568742 0.070226111
-0.4807438 -0.20462112 -0.0060423408 0.89551061 0.44482633 0.013796653 0.066995561
-0.47979078 -0.20897707 -0.0058946437 0.79378361 0.60740399 0.031113243 0.077946402
-0.34060797 -0.20858198 -0.003583719 0.81005514 -0.58565128 -0.028693451 0.068686105
-0.33943504 -0.20347686 -0.0038144626 0.90915751 -0.41619205 0.014722398 0.068142191
-0.48102805 -0.19403175 -0.0031165944 0.98563498 0.16842283 -0.012548919 0.025489377
-0.33933657 -0.19871457 -0.0057600862 0.97252536 -0.23273872 0.0052071325 0.032457437
-0.48102805 -0.18609598 -0.0039695427 0.99890363 0.046576705 -0.004703905 0.0026102904
-0.33933654 -0.18733817 -0.0051355371 0.99900275 -0.043815982 -0.0085900063 0.0022648859
-0.48102802 -0.1748549 -0.0051578083 0.99999899 0.001427774 -0.00010120166 0.00040537637
-0.33933654 -0.17550935 -0.0030296468 0.9999997 -0.00079035509 5.9380334e-05 4.9331346e-05
-0.48102805 -0.16597706 -0.0048398045 1 -0.00013475074 9.0074582e-06 0.00045916185
-0.33933657 -0.1668372 -0.0051416247 1 -5.303065e-05 -3.4143841e-06 5.3667183e-05
-0.48102802 -0.15433572 -0.0034233872 1 -0.00018554165 -2.5050154e-05 0.00047291449
-0.33933657 -0.15711638 -0.0053908685 1 -4.5186142e-05 -2.7760243e-06 6.6458386e-05
-0.48102799 -0.14289509 -0.0046341666 1 -0.00013040676 8.571169e-06 0.00048964011
-0.3393366 -0.14631861 -0.0037598424 1 -6.9372465e-05 -2.8878042e-06 4.9651742e-05
-0.48102805 -0.13553271 -0.0059801629 1 -0.00011214546 4.1570192e-06 0.00043630469
-0.33933657 -0.13238761 -0.0036004391 1 -3.119517e-05 -4.0849077e-06 5.0841551e-05
-0.48102805 -0.12406308 -0.005105244 1 -6.4074309e-05 -5.8095225e-06 0.00038838745
-0.33933654 -0.12751475 -0.0051871147 1 -4.4879307e-05 -4.9379496e-06 4.9306138e-05
-0.48102805 -0.11496971 -0.0041980972 1 -8.0474972e-05 -1.2563779e-05 0.00050870143
-0.33933657 -0.11394218 -0.0050800354 1 -5.1990617e-05 4.7150422e-07 4.9954928e-05
-0.48102805 -0.10522095 -0.0060929307 1 -9.1542403e-05 -3.6911938e-06 0.00044871439
-0.33933657 -0.10450815 -0.0047144229 1 -1.4315704e-08 -5.4212404e-07 5.1794232e-05
-0.48102805 -0.093894161 -0.0046601808 0.99965876 -0.025955299 -0.0029393183 0.0056579136
-0.33933654 -0.09501303 -0.0062694019 0.9996556 0.010641316 0.023985572 0.043819834
-0.48102802 -0.084036544 -0.0056900983 0.99787033 -0.064895779 0.0065855957 0.13047861
-0.33933657 -0.084470399 -0.0042574694 0.99781203 0.065772459 0.0067192116 0.19461046
-0.48102802 -0.074164227 -0.0049338308 0.97504497 0.20254622 0.090898179 0.25051731
-0.37255782 -0.070082664 -0.0012714807 0.059009518 0.99220771 0.1097346 0.027167112
-0.36362061 -0.07021489 -0.0012855179 0.12068132 0.98830974 0.093165487 0.070197508
-0.35329315 -0.070332639 -0.0012500315 0.17921807 0.98187727 0.061626863 0.19832452
-0.34507951 -0.070426203 -0.0013850747 0.36946577 0.92874509 0.030455362 0.26994073
-0.33648425 -0.073032945 -0.0036928025 -0.060398612 0.99760604 0.033677921 0.24132571
-0.32640478 -0.070559584 -0.0018640839 -0.14970264 0.98613656 -0.071580417 0.20190577
-0.31453079 -0.070538126 -0.0030546871 -0.05330262 0.99529719 0.08088477 0.068878181
-0.30299369 -0.070925884 -0.001528579 0.029088337 0.99861872 0.043753792 0.029128766
-0.29541463 -0.070776477 -0.002811657 -0.018065041 0.9971053 0.073855773 0.03622162
-0.28472626 -0.070833221 -0.0033392757 -0.00043396433 0.99550664 0.094690986 0.031321947
-0.27673861 -0.07084991 -0.003651811 -0.032526001 0.99614561 0.081460811 0.034914643
-0.26509613 -0.070794478 -0.0045381198 -0.014754027 0.99287474 0.11824515 0.042997997
-0.25416499 -0.07121262 -0.0030091568 0.007548145 0.99882305 0.04791135 0.031551432
-0.24280244 -0.070909292 -0.0052664573 0.025420297 0.98822027 0.15091197 0.035458691
-0.23454909 -0.070661426 -0.0069101085 0.042271864 0.98734003 0.15288189 0.035475384
-0.22601572 -0.071119413 -0.0048691654 0.023368733 0.99301368 0.11566216 0.03550541
-0.21510227 -0.071151778 -0.0052138558 0.0077235312 0.98546505 0.16970225 0.033336964
-0.20549721 -0.071215846 -0.0052420693 -0.012436944 0.98548824 0.16928735 0.038797867
-0.19456261 -0.071285143 -0.0054155309 0.038355414 0.98538649 0.16595894 0.034261569
-0.18478347 -0.071453735 -0.0049667917 0.010515451 0.9916513 0.12851889 0.036727566
-0.17484181 -0.071363337 -0.0057743941 0.032860953 0.98958588 0.1401422 0.037773922
-0.1655827 -0.071428306 -0.005774416 0.03312844 0.98301393 0.18051629 0.031581324
-0.15440966 -0.071774304 -0.00405647 0.020139968 0.99616683 0.085123584 0.033485364
-0.14510591 -0.071578585 -0.0055295783 -0.010400515 0.99135453 0.13079743 0.034030829
-0.13610195 -0.071549021 -0.0059176516 -0.0091789272 0.9871437 0.1595715 0.036461193
-0.12513739 -0.07211633 -0.0032076763 0.0035910599 0.99828303 0.058463555 0.033688404
-0.11373367 -0.071768887 -0.0053614764 0.0051712636 0.9851386 0.17168319 0.03210612
-0.10300642 -0.071931593 -0.0047979192 0.027433958 0.99179119 0.12489033 0.033095673
-0.095325582 -0.07189513 -0.0051784026 0.0039567212 0.9852699 0.17096072 0.033554159
-0.085244372 -0.071566746 -0.0070107644 -0.015618017 0.97492701 0.22197624 0.027548667
-0.075768806 -0.071560249 -0.0071268599 -0.024011469 0.971753 0.23477527 0.025347346
-0.065394148 -0.072051957 -0.0046682633 -0.02651641 0.98982477 0.13979907 0.035563916
-0.054594785 -0.072599091 -0.0019261487 0.015215657 0.99970728 0.018814405 0.026974587
-0.045696884 -0.072019823 -0.0050061331 -0.018336646 0.98966861 0.14219679 0.036832362
-0.032829292 -0.071976371 -0.0053432453 0.023564687 0.98838884 0.15010786 0.036114898
-0.02611628 -0.072132736 -0.0045355759 0.012792904 0.99332684 0.11462176 0.041228879
-0.014348781 -0.071991555 -0.0053433301 0.0040706759 0.98452806 0.17517938 0.034318835
-0.0058089588 -0.072090246 -0.004879259 -0.029159388 0.98640335 0.16173516 0.031189557
0.0061412277 -0.072158784 -0.0043758187 -0.0015722879 0.99211138 0.12534933 0.029205883
0.014676754 -0.071796618 -0.0061274371 -0.032473695 0.97577327 0.21636066 0.025923381
0.024418429 -0.071903408 -0.0055848877 -0.019977804 0.98229319 0.18628177 0.035990681
0.035152454 -0.071918264 -0.005414567 -0.0061871433 0.98428279 0.17649138 0.035155471
0.04446147 -0.071892127 -0.0054347338 -0.045849603 0.98975414 0.13521998 0.028512277
0.055572364 -0.071698904 -0.0063740774 0.025054943 0.98680663 0.15995264 0.029976813
0.066183053 -0.071819864 -0.0056530833 0.014658634 0.97991931 0.1988548 0.025757143
0.074929893 -0.07203722 -0.0043536844 0.012663949 0.9918806 0.12654129 0.035261977
0.08402852 -0.071915098 -0.0046354108 -0.012294564 0.990547 0.13662191 0.03031606
0.094365463 -0.07185296 -0.0047471765 0.0059534893 0.99163628 0.12892631 0.033165485
0.10557307 -0.071768641 -0.0049357289 -0.029304357 0.99010026 0.13726915 0.030515714
0.11449101 -0.071398571 -0.006591063 -0.013008018 0.97452503 0.2239012 0.028834293
0.12367864 -0.071676701 -0.0048792828 0.0018661977 0.99318677 0.1165188 0.036458544
0.13590941 -0.07154388 -0.0053203073 -0.0068571307 0.98830497 0.15233657 0.031932138
0.14532141 -0.071426794 -0.0056817024 -0.011300465 0.97724712 0.2118028 0.028290525
0.15376581 -0.071610585 -0.0044512418 -0.020813053 0.98877078 0.14798351 0.035062004
0.16622563 -0.071130149 -0.0063550053 -0.013085495 0.98476171 0.17341599 0.034060661
0.17456634 -0.071080819 -0.0062955408 -0.028276613 0.98198467 0.1868328 0.032841396
0.1850722 -0.070980236 -0.0063601723 0.0095218727 0.98511702 0.17162108 0.035663791
0.19455157 -0.071240492 -0.004599032 -0.00040326914 0.99053574 0.13725403 0.038588997
0.20370887 -0.07111831 -0.0048342268 0.013603853 0.99055445 0.13644391 0.039494738
0.21490045 -0.070803806 -0.0059778444 -0.012047023 0.97534847 0.22034101 0.02424968
0.22514084 -0.07088118 -0.0051315641 -0.00028588087 0.98959011 0.14391406 0.034401942
0.23439603 -0.071184143 -0.0031110877 -0.0085856915 0.99955404 0.028599989 0.033783916
0.2436306 -0.071101271 -0.0028773746 -0.0072285733 0.99848163 0.054608885 0.033114795
0.25605735 -0.07104899 -0.0022775382 -0.0047315145 0.9985432 0.053750843 0.032137863
0.26488048 -0.070575118 -0.0044172741 0.0021104105 0.99287015 0.11918196 0.038022485
0.27527747 -0.070580475 -0.0036861929 0.0069388384 0.99854785 0.053424165 0.035558112
0.28506377 -0.070494622 -0.0035793101 -0.023341587 0.99297351 0.11601239 0.037945535
0.29391718 -0.070629023 -0.0021845065 -0.03708544 0.99743634 0.061200447 0.034357078
0.30571297 -0.070448965 -0.002539214 0.0028657659 0.99597037 0.08963684 0.03869864
0.31512898 -0.070499115 -0.0016197339 -0.02428348 0.99938184 0.025420148 0.035081401
0.32474163 -0.070209846 -0.002327197 0.012636645 0.99237472 0.12260769 0.041978184
0.33861184 -0.070171773 -0.0015789228 -0.029524582 0.99796301 0.056551971 0.039954655
0.34706631 -0.070190445 -0.0003455198 -0.059263475 0.99796015 -0.023734994 0.041181341
-0.49697062 -0.065365255 -0.0047408072 0.85726589 0.51279449 0.046227552 0.1325864
-0.48231551 -0.066956326 -0.0048330687 0.82500356 0.5366568 0.17711207 0.22171849
-0.47593287 -0.067346819 -0.0062811063 0.98631698 0.056307752 0.15494621 0.23774204
-0.46482188 -0.067792043 -0.0050349403 0.21975985 -0.95808387 -0.18379623 0.18126647
-0.45776436 -0.067766733 -0.0059276577 -0.033749662 0.98670298 0.15899113 0.084955692
-0.44493744 -0.068694063 -0.0023479296 0.065318264 0.99727511 0.03428942 0.041639227
-0.43261927 -0.068844236 -0.0026191783 0.048942436 0.99449176 0.092686564 0.036839791
-0.42470092 -0.068636976 -0.0045797303 0.012064621 0.98972768 0.14245509 0.029948791
-0.41528511 -0.068736814 -0.0049036387 0.0085018771 0.98860008 0.15032479 0.028742811
-0.40378305 -0.068984538 -0.0044621853 0.042799305 0.9883976 0.14573424 0.028298693
-0.39614469 -0.068969801 -0.0051939515 0.030435348 0.97827929 0.20504449 0.029093482
-0.38587049 -0.068970129 -0.0059963902 0.049298253 0.973423 0.22364576 0.027745571
-0.37484574 -0.069118939 -0.0060878461 0.0409486 0.97534102 0.21687114 0.027768195
-0.36514831 -0.069186836 -0.0064948588 0.037241273 0.98001242 0.19541886 0.045336895
-0.35550192 -0.069347285 -0.0064180903 0.13893862 0.98598284 0.09237884 0.13850777
-0.3460606 -0.069358297 -0.0070999549 0.1069423 0.98090792 0.16242827 0.22805907
-0.33759287 -0.067824334 -0.006059417 0.042994738 0.98448253 0.17013402 0.21313745
-0.32569817 -0.06944406 -0.008046017 -0.13449894 0.92958385 0.34319651 0.18933973
-0.31353819 -0.069390967 -0.0090613905 0.032587927 0.94477326 0.32610059 0.042574689
-0.30496502 -0.0697724 -0.0076061059 0.03626534 0.96878392 0.24523978 0.035778917
-0.29525018 -0.069601499 -0.0090832757 0.0084023615 0.95884538 0.28380445 0.034369331
-0.28552198 -0.069976911 -0.0077295257 -0.018204264 0.97108632 0.23803397 0.022835419
-0.27642658 -0.069885015 -0.0087594939 -0.018761193 0.94575769 0.32433081 0.02969845
-0.26092842 -0.069870256 -0.0097793788 0.019655662 0.95871294 0.28369573 0.026927819
0.2285127 -0.069967769 -0.0097196475 0.0074215983 0.95849472 0.28501335 0.02988857
0.23512872 -0.069945894 -0.009489825 -0.019867228 0.95099628 0.30856338 0.029086158
0.24367514 -0.06980449 -0.009702554 -0.026536124 0.9577772 0.28628451 0.028936062
0.25744492 -0.06970267 -0.0093921851 -0.013573332 0.95231187 0.3048242 0.028171748
0.26561427 -0.069857821 -0.0080906693 -0.0025490418 0.96400249 0.26588088 0.029222203
0.27605692 -0.069505662 -0.0092804283 -0.015652137 0.94438642 0.32846496 0.033695091
0.28744668 -0.069698103 -0.0075896438 -0.010858537 0.97729355 0.21161148 0.035107825
0.29512304 -0.069681577 -0.0072080293 -0.0093449522 0.97591966 0.21793014 0.033538613
0.3059262 -0.069727831 -0.0063106418 0.0040878779 0.98048228 0.19656511 0.035278443
0.31250036 -0.069445029 -0.0073644035 -0.018208748 0.97603989 0.21682855 0.032168176
0.3246569 -0.069482788 -0.0062424331 -0.0037313893 0.99267924 0.12072264 0.040736228
0.33455157 -0.069357544 -0.0061172172 -0.042242259 0.98745984 0.15211435 0.037763141
0.34449542 -0.069216289 -0.0060711452 -0.049994685 0.98698449 0.15284598 0.036943059
0.35568291 -0.069098458 -0.0058063525 -0.048331492 0.99100983 0.12475374 0.038263999
0.36519527 -0.06852337 -0.0080428403 -0.05263187 0.97810149 0.20136379 0.030406429
0.37398794 -0.068647005 -0.0067138709 -0.051623128 0.99200165 0.11518502 0.032187436
0.3846747 -0.068821408 -0.0048760371 -0.026101502 0.99406022 0.10565552 0.033065673
0.39340264 -0.068920404 -0.0037517217 -0.026552474 0.99013364 0.13758799 0.031212345
0.40590525 -0.068252355 -0.0060644634 -0.046452902 0.97378451 0.22267881 0.036322314
0.41485345 -0.068527065 -0.0037208572 0.015581422 0.9952994 0.095583513 0.037329271
0.42606479 -0.067855582 -0.0061925547 -0.0079882145 0.98653513 0.16335426 0.030479532
0.43562704 -0.067847654 -0.0051477253 -0.026930727 0.99225396 0.1212718 0.027377263
0.44385093 -0.067735843 -0.0051117754 -0.047869492 0.98279709 0.17837732 0.036738779
0.45479918 -0.067622863 -0.004650068 -0.015329909 0.99026203 0.13836925 0.030997131
0.46500003 -0.067376375 -0.0049518873 -0.10336842 0.97889376 0.17630103 0.025547845
0.47501963 -0.066713907 -0.0063726339 -0.22020826 0.96704537 0.127795 0.027320338
0.48494938 -0.063853055 -0.0056255925 -0.46063492 0.86924231 0.17953604 0.037071582
-0.5 -0.055384357 -0.0051301257 0.86902422 0.4762907 0.133956 0.1455258
-0.48102805 -0.053312119 -0.004417873 0.74448365 0.64243525 0.1817168 0.19496
-0.33933654 -0.055804875 -0.005952057 0.99764496 0.036983583 0.057765037 0.27194759
0.4963071 -0.054486882 -0.0057393298 -0.78092915 0.61826497 0.088871002 0.038466547
-0.5 -0.045023184 -0.0055962033 0.99343807 0.090886839 0.069429509 0.17180492
-0.48102805 -0.045351434 -0.0037575339 0.92596936 0.31959671 0.20109382 0.17255466
-0.33933654 -0.044850308 -0.0049971724 0.99773258 -0.06534113 0.016133826 0.10665445
0.49929875 -0.047517918 -0.0062255049 -0.90747517 0.38861024 0.15959583 0.025645327
0.5 -0.040804379 -0.0048033604 -0.96521765 0.24052903 0.10247274 0.03422112
-0.5 -0.03550721 -0.0062680603 0.99862045 0.052376106 0.0037291292 0.17055376
-0.48102805 -0.035445064 -0.0049751299 0.9881897 0.028013283 0.15065366 0.18517746
-0.33933657 -0.03612037 -0.00542098 0.99957716 -0.014748959 -0.025057899 0.0059568929
0.5 -0.035339959 -0.0058291145 -0.98715776 0.088422671 0.13304518 0.050411757
-0.5 -0.024247471 -0.0054951706 0.99896902 -0.035272744 -0.02858047 0.18811513
-0.48102802 -0.025610119 -0.0033934214 0.99728298 -0.040405251 -0.061595976 0.17080413
-0.3393366 -0.024473121 -0.0047824192 1 -9.4228735e-06 -1.7365725e-06 7.4051575e-05
0.5 -0.026330853 -0.0031164014 -0.99853534 -0.041675806 0.034500722 0.052815158
-0.5 -0.017377313 -0.0049492694 0.99862468 -0.046042677 -0.025074136 0.18645103
-0.48102802 -0.015024357 -0.0060680252 0.98846388 -0.056880835 -0.14036998 0.18211749
-0.33933657 -0.015046162 -0.0041629868 1 -5.7717648e-06 -4.183064e-06 8.1461767e-05
0.47737795 -0.012500824 -0.00077245652 -0.96871626 0.20813203 -0.13516597 0.22847147
0.48730612 -0.013840834 -0.0009023092 -0.99984312 -0.0066591785 -0.016411336 0.069418453
0.49533176 -0.013390976 -0.0011811323 -0.99980974 -0.0022213045 -0.019379027 0.047160063
0.5 -0.013822791 -0.0044596735 -0.99902678 -0.0019712166 0.04406333 0.050088625
-0.5 -0.0056579974 -0.0054012961 0.9964298 0.024051826 0.08092732 0.18485554
