# .PCD v0.7 - Point Cloud Data file format
VERSION 0.7
FIELDS x y z normal_x normal_y normal_z curvature
SIZE 4 4 4 4 4 4 4
TYPE F F F F F F F
COUNT 1 1 1 1 1 1 1
WIDTH 571
HEIGHT 1
VIEWPOINT 0 0 0 1 0 0 0
POINTS 571
DATA ascii
-0.025224306 0.045112781 -0.46655151 0.41996118 -0.90739065 0.016575918 0.07069438
-0.015046691 0.045112785 -0.4649975 0.16512507 -0.98621923 -0.010268358 0.033680417
-0.0051675066 0.045112785 -0.46499223 -0.00028639313 -0.99998158 -0.0060668695 0.00012075183
0.0065431939 0.045112781 -0.46467343 5.306855e-05 -0.99991059 -0.013369485 0.00042029089
0.016560342 0.045112785 -0.46528852 0.00065759249 -0.99999219 -0.0039035752 5.1016621e-05
0.024053201 0.045112785 -0.4666836 -1.2227008e-06 -1 1.0214761e-05 6.3509168e-07
0.036815558 0.045112785 -0.46675938 9.8531916e-07 -1 -5.7475688e-08 5.7230324e-07
0.043824662 0.045112785 -0.46444157 0.0011758762 -0.9999491 -0.010023951 0.00016857272
0.055049587 0.045112785 -0.46500468 -0.00021560981 -0.99997044 -0.007688533 0.00017329835
0.066488571 0.045112785 -0.46412978 -0.00076000893 -0.99985558 -0.016977577 0.00029481502
0.075128794 0.045112785 -0.46454087 -0.0012327279 -0.99991864 -0.012698084 0.00027824633
0.084935248 0.045112785 -0.46550027 0.00019253227 -0.99997652 -0.0068492079 0.00014264358
0.09562996 0.045112785 -0.46530119 0.00012555181 -0.99999267 -0.0038291032 4.437234e-05
0.10626366 0.045112785 -0.46402261 3.7752237e-05 -0.99984902 -0.017379612 0.00043756707
0.11556468 0.045112781 -0.46706635 -0.00079401064 -0.9999702 0.0076825195 8.9976384e-05
0.12390954 0.045112781 -0.46326822 0.0012012855 -0.99991643 -0.012872205 0.00031000961
0.13309173 0.045112785 -0.46468723 -0.096386746 -0.99534267 -0.0015919738 0.013211747
0.14500715 0.045112785 -0.46462113 -0.31991729 -0.94642735 0.043910805 0.057320554
0.15401448 0.044695355 -0.46445507 -0.63285315 -0.77422386 0.0086158542 0.06111984
-0.034255467 -0.042143516 -0.45493144 -0.70675737 -0.69622666 0.12554875 0.10345766
-0.023812218 -0.042606525 -0.45547622 -0.2855275 -0.94715917 0.14616239 0.068287522
-0.016965628 -0.042606529 -0.45581922 -0.17754552 -0.97151256 0.15697454 0.063048735
-0.0035843065 -0.042606529 -0.45456582 0.0029395216 -0.97291547 0.23114249 0.044379011
0.0056227827 -0.042606529 -0.45523593 -0.0072447811 -0.98208761 0.18828531 0.033374738
0.015179576 -0.042606525 -0.45539734 0.0012255517 -0.98911369 0.14714861 0.023536852
0.025418321 -0.042606525 -0.45558205 -0.024175996 -0.98877692 0.14743024 0.022481667
0.035397176 -0.042606521 -0.4536922 -0.022507258 -0.99114889 0.13083318 0.017309373
0.044916909 -0.042606521 -0.45693371 -0.0038751494 0.99790257 -0.064616494 0.0071412534
0.054107025 -0.042606518 -0.45549148 -0.014193741 0.99712801 -0.074393183 0.007148861
0.064156242 -0.042606529 -0.45497933 0.01130768 0.99720371 -0.073870122 0.0072138687
0.075235002 -0.042606518 -0.45595917 0.0025481326 0.99830723 -0.058104314 0.0063805822
0.08528506 -0.042606521 -0.45471221 0.023934603 -0.99253631 0.11957758 0.017549463
0.09683463 -0.042606521 -0.45321846 0.015974635 -0.98336369 0.18094411 0.024922477
0.10309228 -0.042606525 -0.454613 -0.038294937 -0.98148108 0.1876922 0.029684152
0.11576745 -0.042606525 -0.45391601 -0.024561508 -0.97660017 0.21365558 0.03828894
0.12471395 -0.042606525 -0.45566347 -0.0025927387 -0.97989202 0.19951162 0.039277107
0.13609518 -0.042606525 -0.4553712 0.2099037 -0.96203506 0.17443906 0.062348861
0.14432639 -0.042606521 -0.45705923 -0.32959133 0.93255204 -0.14736436 0.066199094
0.15440394 -0.042242099 -0.45386648 -0.69396281 0.69181442 -0.19952042 0.093070515
-0.036467828 -0.036076602 -0.45516485 -0.86539072 -0.48073253 0.14140376 0.07333868
0.15651464 -0.036051311 -0.45409101 -0.87374544 0.45031875 -0.18379828 0.086061627
-0.036467832 -0.026663482 -0.45690361 -0.94989872 -0.29069242 0.11484864 0.066942811
0.15651464 -0.02508853 -0.45560017 -0.96567762 0.22991528 -0.12085375 0.05944917
-0.036467828 -0.015112791 -0.45475674 -0.98201025 -0.0097321691 0.18857646 0.036853977
0.15651464 -0.014066831 -0.45473981 -0.9821738 0.0048490828 -0.18791233 0.026126614
-0.036467832 -0.0043530953 -0.45650393 -0.99059451 0.00041409009 0.13682944 0.02395986
0.15651464 -0.005118974 -0.45354053 -0.97237259 0.031361021 -0.23131804 0.043184724
-0.036467832 0.0028359732 -0.45141816 -0.9501071 0.018389342 0.31138152 0.058126766
0.15651464 0.0048495121 -0.45508078 -0.99278587 0.0043364451 -0.11982201 0.015034639
-0.036467832 0.014946526 -0.45653933 -0.98372716 0.03337194 0.17654289 0.037423544
0.15651464 0.015303487 -0.45505476 -0.98514587 -0.012520869 -0.17126229 0.035322811
-0.036467832 0.026441235 -0.45358881 -0.95918196 0.16575776 0.22911628 0.069049485
0.15651464 0.024693927 -0.45599324 -0.98026085 -0.16400406 -0.11041477 0.040327076
-0.036467828 0.033341661 -0.45394191 -0.88997877 0.38555816 0.24348035 0.088842869
0.15651464 0.033876024 -0.45435968 -0.92698193 -0.34591004 -0.14508907 0.089555301
-0.032422256 0.045112781 -0.4549771 -0.46883157 0.87178135 0.14210653 0.082585938
-0.026142096 0.045112785 -0.45463705 -0.33923715 0.92898738 0.14798893 0.072535507
-0.014978503 0.045112785 -0.45553234 -0.14025739 0.97623473 0.16520767 0.047394466
-0.0049161357 0.045112785 -0.45442539 -0.015576362 0.97628665 0.21592051 0.042719897
0.003254219 0.045112781 -0.45170522 0.019028531 0.95631248 0.29172623 0.057491243
0.013824804 0.045112781 -0.45578963 0.01324058 0.98499972 0.17204703 0.031085877
0.025777401 0.045112785 -0.45289379 -0.03206287 0.9674111 0.25117278 0.041875649
0.033719778 0.045112785 -0.45464891 -0.026056834 0.98413116 0.17551941 0.026033765
0.043275259 0.045112785 -0.45498705 0.0065353462 0.99451488 0.10439113 0.011552096
0.055892292 0.045112785 -0.45482305 0.0049352548 -0.99570394 -0.092461742 0.009515238
0.06570407 0.045112785 -0.45425913 0.025753038 0.99271792 0.11767703 0.01408216
0.074477136 0.045112785 -0.45610237 0.0096502937 -0.99541885 -0.095121697 0.012049805
0.085767351 0.045112781 -0.456563 0.0046081203 0.99332166 0.11528547 0.015932431
0.097750381 0.045112785 -0.45739734 -0.00046185416 0.98521042 0.17134832 0.023896204
0.10416161 0.045112781 -0.45364374 0.026469463 0.97745711 0.20946826 0.032556456
0.11431005 0.045112785 -0.45553452 -0.020681713 0.98913097 0.14557514 0.02572435
0.12537459 0.045112785 -0.45521846 0.018571353 0.98451954 0.17428793 0.026317451
0.13499056 0.045112785 -0.45400277 0.13604371 0.97349387 0.18385288 0.052965336
0.14378805 0.045112785 -0.45460042 0.30615181 0.92920637 0.20699412 0.07712923
0.15398362 0.044078805 -0.45534983 -0.63735169 -0.75681591 -0.14495663 0.08843264
-0.035895173 -0.041279435 -0.44342351 -0.75487369 -0.55104411 0.35569122 0.13818601
-0.02471615 -0.042606529 -0.44585598 -0.30765772 -0.85527056 0.41696399 0.11959135
-0.017704191 -0.042606521 -0.44574258 -0.20005405 -0.91864014 0.34070337 0.082251608
-0.0045111235 -0.042606521 -0.4485954 -0.026590921 -0.9587329 0.28306201 0.056806881
0.0068294047 -0.042606518 -0.44676942 -0.014664568 -0.9366805 0.34987792 0.055583306
0.014981793 -0.042606525 -0.44457889 -0.039163098 -0.92958426 0.36652327 0.051137526
0.023963053 -0.042606529 -0.44552186 -0.052905574 -0.94212568 0.33105925 0.035537194
0.035611346 -0.042606521 -0.44508997 -0.032216381 -0.97145659 0.23501958 0.021846764
0.04561545 -0.042606525 -0.4453398 -0.045171984 -0.9776563 0.2052988 0.016910924
0.056207895 -0.042606525 -0.4438723 -0.019190395 -0.98015231 0.19731492 0.011741329
0.065488145 -0.042606518 -0.44636759 0.014203547 -0.98634213 0.16409603 0.012285813
0.07394354 -0.042606521 -0.44593811 0.021863539 -0.98414397 0.17601894 0.013720028
0.084050044 -0.042606525 -0.44297194 0.078381807 -0.95605397 0.2825194 0.025211709
0.096107356 -0.042606525 -0.44488758 0.042209305 -0.95409209 0.29652438 0.038695045
0.1056576 -0.042606525 -0.44611567 0.01030258 -0.94709671 0.32078272 0.04513678
0.11481848 -0.042606525 -0.44464278 -0.013762656 -0.90621215 0.42259929 0.056690469
0.12600085 -0.042606525 -0.44359535 -0.010258214 -0.8862102 0.46316984 0.070052117
0.13377567 -0.042606525 -0.44397399 0.11525794 -0.91633111 0.38347483 0.062393267
0.14560461 -0.042606521 -0.44278088 0.40772018 -0.78560603 0.46538952 0.1082515
0.15432218 -0.04228643 -0.44808152 0.69273245 -0.65421832 0.30351305 0.10119187
-0.036467832 -0.034871843 -0.44582385 -0.83077657 -0.48755631 0.26851276 0.12715912
0.15651464 -0.035034154 -0.44647717 -0.84703982 0.4586148 -0.26869333 0.10355573
-0.036467832 -0.025284572 -0.44623539 -0.91123599 -0.21504265 0.35129154 0.090371408
0.15651464 -0.025223816 -0.44475219 0.88180268 -0.24817203 0.40104198 0.089880168
-0.036467832 -0.015708983 -0.44515452 -0.91429937 -0.012340991 0.40485108 0.063895553
0.15651464 -0.014618109 -0.44426894 0.9169082 -0.013545379 0.39886811 0.055718593
-0.036467828 -0.0043713427 -0.44550702 -0.9163273 -0.039914947 0.39843568 0.068389431
0.15651464 -0.0052424273 -0.44506288 0.92550808 0.022256251 0.37807333 0.064052112
-0.036467828 0.0060513024 -0.44619718 -0.91520083 -0.021593569 0.40241909 0.065139689
0.15651464 0.0045090318 -0.44407472 0.84986371 0.046000533 0.52499115 0.079612523
-0.036467832 0.012160215 -0.44415107 -0.86679989 0.011990948 0.49851197 0.070793413
0.15651464 0.015556647 -0.44613448 0.9234466 -0.036104772 0.38202474 0.068200231
-0.036467832 0.024125796 -0.44478422 -0.86475009 0.097071156 0.49273169 0.072795078
0.15651464 0.024904713 -0.44335628 0.90477204 0.1182235 0.40915859 0.075494774
-0.036467832 0.033488259 -0.44322962 -0.83759201 0.32031286 0.44253737 0.10307048
0.15651464 0.035682656 -0.44546929 0.84800678 0.39387065 0.35461289 0.11153675
-0.035080422 0.043931682 -0.44492981 -0.62670153 0.70571285 0.33047634 0.13194084
-0.023781668 0.045112781 -0.4445895 -0.25737524 0.87023979 0.42004848 0.098253153
-0.013850112 0.045112785 -0.44343945 -0.077331468 0.85050452 0.52025187 0.086545683
-0.0040818099 0.045112785 -0.4460423 -0.01885947 0.92591697 0.37725601 0.061121751
0.004324534 0.045112781 -0.44399452 -0.0079676872 0.89168316 0.45258978 0.062622167
0.015782693 0.045112785 -0.44460845 -0.036489986 0.89579874 0.44295946 0.047546089
0.025502196 0.045112785 -0.44556999 -0.01281436 0.93166035 0.36310449 0.039057966
0.034376319 0.045112785 -0.44484708 -0.042160962 0.94943506 0.31111977 0.036816657
0.044819467 0.045112785 -0.44549167 -0.018176015 0.95747828 0.2879324 0.023154618
0.054915164 0.045112785 -0.44577768 0.01387344 0.97278845 0.23127931 0.016980793
0.065854698 0.045112785 -0.44734105 0.00046107185 0.97712439 0.21266827 0.018088205
0.078015767 0.045112781 -0.4471263 0.016361954 0.96893346 0.24677984 0.024658246
0.085090302 0.045112785 -0.44464236 0.059373755 0.94989479 0.30687875 0.030989587
0.094040573 0.045112781 -0.44303352 0.03830561 0.92076403 0.38823479 0.036978576
0.10415699 0.045112785 -0.44603512 0.001553064 0.93624789 0.35133651 0.04775532
0.11450414 0.045112785 -0.44519967 0.04021436 0.88278258 0.46805742 0.065648116
0.12526198 0.045112785 -0.44506258 -0.039017756 0.92280126 0.38329548 0.068709612
0.13339576 0.045112785 -0.44522968 0.065168679 0.92214894 0.38130599 0.065008998
0.14644399 0.045112785 -0.44705573 0.36547241 0.88692814 0.28246868 0.098554634
0.15518799 0.043841146 -0.44337028 0.72315013 0.57185715 0.38734114 0.13484737
-0.033711337 -0.04209891 -0.43770647 -0.55155402 -0.62710077 0.55002981 0.11582687
-0.024234153 -0.042421553 -0.43607721 -0.27768576 -0.73637748 0.61695933 0.10960378
-0.015169152 -0.041811347 -0.43683586 -0.093976036 -0.69043946 0.71725988 0.092067659
-0.005168369 -0.042606521 -0.43691778 -0.0036425111 -0.73314869 0.68005866 0.083215222
0.0048697605 -0.042394213 -0.43682948 -0.067310497 -0.81060767 0.58170831 0.066315569
0.016197436 -0.042146996 -0.4358283 -0.1533961 -0.8682586 0.47180164 0.048693106
0.025445029 -0.04175901 -0.43647328 -0.14294215 -0.91374242 0.38031882 0.033542302
0.036442764 -0.042233787 -0.4366045 -0.11019989 -0.94899058 0.2954196 0.022645224
0.044693667 -0.042606521 -0.43726385 -0.039704498 -0.96273214 0.26752624 0.018296359
0.053828388 -0.041720562 -0.43531919 -0.01752902 -0.97193038 0.2346146 0.010712689
0.065253399 -0.041906621 -0.43668127 0.017395694 -0.97371167 0.22711882 0.011300187
0.075454675 -0.042191949 -0.4369612 0.053333916 -0.96063685 0.27263969 0.019659128
0.085084684 -0.042126011 -0.43695539 0.090989687 -0.94699824 0.30808312 0.022267831
0.096570231 -0.042170238 -0.43619835 0.070824862 -0.92021972 0.38494092 0.036842581
0.10483743 -0.042405844 -0.43714273 0.062512964 -0.88443696 0.4624536 0.046520103
0.11606852 -0.04243654 -0.4377661 0.042401783 -0.86235797 0.50452036 0.066985257
0.12514448 -0.04246306 -0.43564054 0.014262477 -0.7703557 0.63745493 0.069126561
0.13422388 -0.042108182 -0.43621778 0.15033957 -0.65665394 0.73905581 0.080337226
0.14651959 -0.042092998 -0.43713474 0.38642067 -0.68735373 0.61499906 0.11825179
0.15233871 -0.041749373 -0.43590999 0.52619541 -0.59726471 0.6053043 0.10448741
-0.033828091 -0.034791235 -0.43627059 -0.61420953 -0.42233345 0.66661918 0.11256901
-0.024624307 -0.036753979 -0.4348371 -0.26903594 -0.57099849 0.77561611 0.12187389
-0.013918989 -0.034777816 -0.4348371 -0.089806266 -0.61464292 0.78367656 0.071651131
-0.0051925257 -0.035763573 -0.4348371 -0.04279517 -0.68662614 0.72575003 0.067578696
0.0049649044 -0.0357848 -0.4348371 -0.10103194 -0.74905384 0.65476024 0.07228028
0.013925402 -0.035936609 -0.43483707 -0.1745542 -0.81403536 0.55396497 0.061091311
0.025873953 -0.035788041 -0.43464723 -0.16082102 -0.88965529 0.42737573 0.032907352
0.033815164 -0.035130005 -0.43399355 -0.094833344 -0.93522954 0.34110469 0.024975501
0.044001006 -0.035369579 -0.43417826 -0.063180946 -0.9608202 0.26987526 0.016940475
0.056382496 -0.035938129 -0.43322837 -0.01916497 -0.96648449 0.25600865 0.011901156
0.066154905 -0.036147386 -0.43370596 0.049482033 -0.96957147 0.23975526 0.011808206
0.073991947 -0.037328064 -0.43466249 0.083075806 -0.95419145 0.28743193 0.014871557
0.085145995 -0.034145065 -0.43334749 0.096916832 -0.94479162 0.31301117 0.020756336
0.095290855 -0.034227233 -0.43475169 0.15864442 -0.89772099 0.41100964 0.032188293
0.10548642 -0.035428416 -0.43483713 0.12749429 -0.87149787 0.47353616 0.056772772
0.11488955 -0.035550661 -0.4348371 0.11648671 -0.78668106 0.60627025 0.066026002
0.1247054 -0.034764241 -0.4348371 0.13498376 -0.624295 0.76943809 0.070965528
0.13453767 -0.034586221 -0.4348371 0.16501804 -0.49906453 0.85070777 0.069453016
0.14640622 -0.03340276 -0.4348371 0.40504783 -0.28363627 0.86918736 0.10257757
0.15478435 -0.034317434 -0.43567228 0.75231272 -0.35584602 0.55443585 0.13380724
-0.033465069 -0.024815878 -0.4352361 -0.67566782 -0.11811081 0.72768325 0.10412207
-0.024011444 -0.024489136 -0.4348371 -0.36183381 -0.25742283 0.89599651 0.076311968
-0.014582901 -0.024922835 -0.4348371 -0.27854842 -0.41897583 0.86421645 0.075550616
-0.0049405023 -0.026258076 -0.4348371 -0.24721663 -0.54178959 0.80333549 0.08018212
0.0048008584 -0.023681151 -0.43449348 -0.33581233 -0.61896187 0.7100116 0.070659839
0.012146258 -0.027117513 -0.43429929 -0.27931634 -0.77266818 0.57005799 0.052879147
0.021986539 -0.0287746 -0.43389487 -0.2394228 -0.85054898 0.46823403 0.04171576
0.099208556 -0.029376864 -0.43376866 0.18962167 -0.88623375 0.42265046 0.050286014
0.1047408 -0.027462099 -0.43312311 0.24954891 -0.84879166 0.46613097 0.056956992
0.1160224 -0.024187803 -0.43402654 0.32456768 -0.65783024 0.67964351 0.074418806
0.12420964 -0.027778625 -0.4348371 0.22573169 -0.61424553 0.75614005 0.080773771
0.13550398 -0.02515804 -0.4348371 0.30500567 -0.41462022 0.85735732 0.076450527
0.14527366 -0.023151681 -0.4348371 0.44319394 -0.23331076 0.86553174 0.065964289
0.1546814 -0.023773791 -0.43662176 0.76125962 -0.17740376 0.62370795 0.073182039
-0.036067083 -0.015967205 -0.43563545 -0.72470886 0.0058275838 0.68903053 0.062419996
-0.023369214 -0.015849397 -0.4348371 -0.48913798 -0.060637474 0.87009603 0.059855882
-0.014210533 -0.014808669 -0.43483707 -0.41292894 -0.17450123 0.89388984 0.06512738
-0.0047640894 -0.014479801 -0.43364984 -0.42957023 -0.2473909 0.86848557 0.094928488
0.00080648327 -0.017643759 -0.43157935 -0.57762629 -0.52212882 0.6274786 0.11010391
0.12501499 -0.014999981 -0.43356389 0.46761173 -0.40776798 0.78426051 0.10134352
0.13666138 -0.014028594 -0.4348371 0.52052122 -0.11488555 0.84608459 0.071281441
0.14683013 -0.015361525 -0.4348371 0.5487482 -0.089664705 0.83116531 0.056639619
0.15465367 -0.016009303 -0.43661734 0.7072624 0.0053411853 0.70693094 0.074590907
-0.034729887 -0.0048281443 -0.43597162 -0.63355547 0.033793297 0.77295887 0.080263622
-0.024496488 -0.0042811041 -0.43483716 -0.49807936 -0.091746956 0.86226416 0.061166421
-0.014167503 -0.0028568944 -0.4348371 -0.46565083 0.0010070109 0.88496804 0.077220231
-0.0080454927 -0.0037040983 -0.43393165 -0.50334597 -0.0023640266 0.86408174 0.096470065
0.12919098 -0.008336544 -0.43181786 0.67955303 -0.22278115 0.6989823 0.11875317
0.13536684 -0.0061726612 -0.43464208 0.55416965 -0.1266202 0.82271707 0.09016972
0.14537819 -0.0052249599 -0.4348371 0.64315546 0.028373953 0.76520979 0.067959115
0.15459551 -0.0039315931 -0.43597099 0.69653577 -0.016827177 0.71732479 0.068633869
-0.034723349 0.0057245493 -0.43608809 -0.67611182 -0.021590693 0.73648268 0.082707338
-0.024104018 0.0058166115 -0.4348371 -0.53992808 0.045923945 0.84045744 0.066110142
-0.016471617 0.0054564737 -0.4348371 -0.42214534 0.087396294 0.90230548 0.064276472
-0.0081164502 0.0056380872 -0.43356264 -0.5405826 0.093062803 0.83612776 0.12329043
0.12945509 0.0075838887 -0.43396217 0.56859028 0.20154543 0.79754907 0.11015555
0.13512507 0.0041656578 -0.43382907 0.54371828 0.098694526 0.8334446 0.085585043
0.14674759 0.0048217671 -0.4348371 0.61191356 0.059944276 0.7886498 0.069073685
0.15454604 0.0048952773 -0.43688464 0.73340452 0.036327578 0.67882115 0.077135384
-0.034288868 0.01495597 -0.43532959 -0.6540724 -0.075243913 0.75268036 0.074899815
-0.023948684 0.015496014 -0.4348371 -0.49348515 0.035451625 0.86903137 0.058450423
-0.015952041 0.0167215 -0.4348371 -0.44701976 0.14074391 0.88338244 0.061868493
-0.0037394816 0.014180448 -0.4324263 -0.64556026 0.29713237 0.70353705 0.13056798
0.00032325438 0.017327091 -0.43300891 -0.51848131 0.54089409 0.66227692 0.11486397
0.12613501 0.015753139 -0.4343226 0.40024415 0.35128039 0.84640813 0.097137935
0.13440476 0.015449662 -0.43483716 0.46101424 0.20200393 0.86409503 0.066210717
0.1455413 0.014968489 -0.4348371 0.62046903 0.069910549 0.78110862 0.064299263
0.15486731 0.014206604 -0.43640423 0.70887947 -0.022668285 0.70496529 0.08072868
-0.032773394 0.022479044 -0.43528688 -0.61458743 0.051900584 0.78713948 0.084082142
-0.025116671 0.024537196 -0.43483713 -0.43759397 0.11515974 0.8917678 0.057881724
-0.014942384 0.025445908 -0.4348371 -0.27771229 0.33205843 0.90145057 0.072546057
-0.0051597166 0.025566926 -0.4348371 -0.32443738 0.41444376 0.8502804 0.090909339
0.0053864075 0.023928387 -0.43455195 -0.36100349 0.54005927 0.76027131 0.081790432
0.014785745 0.027475681 -0.43345332 -0.25244382 0.78101921 0.57121027 0.059701052
0.022753986 0.029315023 -0.43247485 -0.25091574 0.86793524 0.42863715 0.047087431
0.098507173 0.029564699 -0.43352789 0.19457152 0.86653399 0.45963115 0.048858155
0.10528532 0.027619619 -0.43315926 0.29668179 0.80089295 0.52014458 0.057179574
0.11540586 0.023796989 -0.43403751 0.36740732 0.58942223 0.71943963 0.081009269
0.12466995 0.022502273 -0.4348371 0.25389686 0.39784646 0.88162041 0.070241988
0.1339578 0.02676109 -0.4348371 0.24113321 0.4401392 0.86494642 0.066365048
0.1452729 0.025129605 -0.4348371 0.43217912 0.25552335 0.86482894 0.072413608
0.15452459 0.024552464 -0.43583193 0.67361063 0.094348997 0.73303956 0.10269716
-0.034320496 0.036266308 -0.43523049 -0.56066042 0.40589616 0.72173965 0.12861887
-0.024017537 0.035241116 -0.4348371 -0.25715744 0.38842285 0.8848716 0.096213803
-0.013976347 0.033473238 -0.43483707 -0.1986336 0.4559797 0.8675409 0.065244772
-0.005507872 0.03368558 -0.4348371 -0.16997017 0.53873652 0.82515037 0.071349822
0.0042089834 0.034512278 -0.4348371 -0.18047744 0.7112835 0.67934054 0.068525478
0.014614697 0.035654079 -0.4348371 -0.17760052 0.78789574 0.58964258 0.054300509
0.026082611 0.032443341 -0.4330869 -0.21970153 0.86720461 0.44686392 0.051852439
0.033953827 0.034215715 -0.43402538 -0.088538453 0.88509685 0.45690766 0.031334449
0.044446342 0.036742937 -0.43464822 -0.10589255 0.93137878 0.34831068 0.022383042
0.055455957 0.036421057 -0.43302354 -0.039775606 0.95202535 0.30342311 0.018935869
0.06407968 0.03711665 -0.43468693 0.047139335 0.94831151 0.31382009 0.015580679
0.076274946 0.035355374 -0.43429136 0.077920429 0.93842059 0.33659366 0.024556998
0.083899647 0.03457303 -0.43418166 0.11119254 0.93619055 0.3334417 0.026829928
0.095877878 0.033460073 -0.43365264 0.1505515 0.87900549 0.45241982 0.04306623
0.10631655 0.03486196 -0.4348371 0.18686777 0.79006845 0.58384269 0.06027725
0.11435339 0.035653658 -0.4348371 0.21400997 0.74092358 0.63657838 0.066343695
0.1244413 0.034854956 -0.43483716 0.17194018 0.62493515 0.76150674 0.071149834
0.13527371 0.035249546 -0.43483713 0.19500533 0.46667069 0.8626653 0.062723778
0.1448433 0.036155459 -0.4348371 0.26587817 0.40673208 0.87400103 0.11496623
0.15600337 0.036169849 -0.43660387 0.75921226 0.34120268 0.55423588 0.13258317
-0.035335395 0.042186324 -0.43664834 -0.63815618 0.4841764 0.59860665 0.13513401
-0.024556864 0.043471191 -0.43577489 -0.25343642 0.53144455 0.80829245 0.12273867
-0.01624831 0.04406764 -0.43543473 -0.1653733 0.63439506 0.75511223 0.089900747
-0.004190932 0.043777846 -0.43644783 -0.096209452 0.64534837 0.75780553 0.079091959
0.0067174179 0.04263401 -0.43489331 -0.098189369 0.78657818 0.60963404 0.059880964
0.011823999 0.044254713 -0.43671557 -0.073038518 0.83004975 0.55288589 0.060179904
0.023147838 0.043528248 -0.43504372 -0.064590156 0.85175675 0.51994091 0.041811679
0.035814207 0.043970816 -0.43623123 -0.053502336 0.91848373 0.39182287 0.029429434
0.044123493 0.043824967 -0.43565956 -0.065554544 0.93014014 0.36130598 0.023180313
0.057544783 0.043562759 -0.43647459 -0.0083935643 0.955392 0.29522121 0.016679123
0.063253798 0.043936495 -0.43597889 0.037051309 0.95220041 0.30321875 0.015004043
0.075009868 0.043490715 -0.43605036 0.044638839 0.94877714 0.31277689 0.02561488
0.083903573 0.043700688 -0.4366287 0.082076117 0.93243742 0.35188636 0.027703779
0.094389111 0.044313435 -0.43651503 0.073293202 0.91000581 0.40806565 0.04084029
0.10407846 0.042986728 -0.43575943 0.07409317 0.86150062 0.50232148 0.050006039
0.11559119 0.043374553 -0.4359757 0.10456 0.80076003 0.58978844 0.064346611
0.12378196 0.043466598 -0.43579134 0.076912224 0.66784233 0.7403183 0.066384412
0.13371758 0.045093149 -0.43656781 0.047936056 0.75604582 0.65276092 0.082088925
0.14623329 0.043201685 -0.43619365 0.31365502 0.69130576 0.65093541 0.12705153
0.15474449 0.043741897 -0.43742117 0.68289882 0.56606013 0.46176305 0.12440092
0.027944626 -0.0307505 -0.42349336 -0.25343031 -0.91879994 0.30262154 0.040223576
0.035948571 -0.03240817 -0.42383072 -0.15232076 -0.9548893 0.25492132 0.027262982
0.043567378 -0.033815868 -0.42574289 -0.12485301 -0.95502895 0.26894498 0.021504235
0.055002339 -0.034674719 -0.42333466 -0.05603984 -0.97670382 0.20714521 0.013537519
0.064700432 -0.034862339 -0.42419422 0.015086392 -0.97254622 0.23222011 0.013921448
0.0747853 -0.034194924 -0.42522436 0.11608464 -0.96786457 0.22307502 0.017580763
0.084961787 -0.032748386 -0.42428762 0.16691154 -0.95830894 0.23191494 0.025847465
0.093317032 -0.031009557 -0.42431602 0.19674487 -0.93594807 0.2920492 0.039176468
0.0072066146 -0.021912133 -0.42342487 -0.49357972 -0.79429924 0.35421428 0.083755545
0.015544486 -0.026274655 -0.42456612 -0.33304653 -0.86360288 0.37851042 0.065827779
0.023285784 -0.029273072 -0.42649904 -0.30976525 -0.86595547 0.39264065 0.047665246
0.098643631 -0.029512351 -0.42867079 0.2108108 -0.90707791 0.36437413 0.035745542
0.10614435 -0.026634596 -0.42399827 0.32570577 -0.86796874 0.37489468 0.058934014
0.11390952 -0.022827808 -0.4245708 0.52074724 -0.72075945 0.45752391 0.079402678
-0.0023634532 -0.014083948 -0.42882285 -0.65680474 -0.41577551 0.62907732 0.13873637
0.0019223179 -0.018441632 -0.42470679 -0.61740255 -0.65958387 0.42867616 0.11567578
0.11943403 -0.019248618 -0.42585722 0.55493605 -0.57473946 0.60143214 0.10758748
0.12454126 -0.014391747 -0.42490116 0.72891283 -0.43899533 0.52532774 0.12064642
-0.0078873662 -0.0038416863 -0.42427289 -0.84813315 -0.038916614 0.52835196 0.14015342
0.12957336 -0.0071347519 -0.42173934 0.92098933 -0.1280704 0.36793563 0.13394083
0.13065276 -0.0030353037 -0.42530259 0.80902004 -0.052098751 0.58546764 0.15220642
-0.0075523206 0.0051141488 -0.42697635 -0.68511546 0.056676943 0.72622627 0.11885789
0.12956314 0.0071736458 -0.42729986 0.69567937 0.2171603 0.68474203 0.12786853
0.13064952 0.0030476321 -0.42476875 0.7807188 0.19710228 0.59298295 0.1403534
-0.0035966311 0.01259537 -0.42653927 -0.72409582 0.33009666 0.6055752 0.12301484
0.0025641136 0.018887017 -0.42620772 -0.52752334 0.59372383 0.60762745 0.1050555
0.11906382 0.019489856 -0.42200756 0.57590127 0.70866424 0.40759391 0.095653214
0.12362725 0.01556161 -0.42461815 0.75463277 0.53266472 0.38314193 0.1159422
0.006994721 0.021774061 -0.42288291 -0.55615717 0.72357404 0.40881515 0.098370843
0.014305647 0.02577485 -0.42407992 -0.40235361 0.82290554 0.40117073 0.078546293
0.022671245 0.029037291 -0.42789316 -0.27102616 0.86526078 0.42174476 0.051346686
0.098373696 0.029615911 -0.42213959 0.27010685 0.91679192 0.29416797 0.050000288
0.10766695 0.026050428 -0.42646194 0.42808312 0.78422117 0.44915685 0.067067116
0.11579339 0.021620901 -0.42598629 0.57378918 0.71076995 0.40690544 0.092554092
0.028626444 0.030891703 -0.42587861 -0.21403851 0.91284472 0.34770957 0.047275577
0.035280503 0.032269809 -0.42451826 -0.18513709 0.94617772 0.26546559 0.03386661
0.044805475 0.033947084 -0.42454356 -0.13118997 0.95781314 0.25570133 0.027480984
0.054246973 0.034624994 -0.42298004 -0.052774955 0.96737492 0.24779131 0.020135025
0.069360875 0.034555558 -0.42418292 0.065062828 0.96318603 0.26084358 0.020977449
0.075171396 0.034173075 -0.42556959 0.10963903 0.94987363 0.29277879 0.024107622
0.085941583 0.032545462 -0.42560324 0.17329276 0.93463922 0.31051448 0.034485932
0.093428671 0.030962646 -0.4254486 0.26103428 0.88437241 0.38697085 0.04643067
0.027173072 -0.030540405 -0.4151969 -0.29261065 -0.94713622 0.13157497 0.026469117
0.033971895 -0.031998783 -0.41655326 -0.22413738 -0.95985621 0.16863717 0.02612129
0.044396043 -0.033865362 -0.41462398 -0.13160971 -0.9823488 0.13292791 0.017611731
0.054608222 -0.034648772 -0.41608837 -0.0487529 -0.98911691 0.13881946 0.012801027
0.065957457 -0.034768853 -0.41528577 0.042138916 -0.99186784 0.12009347 0.011633744
0.074670456 -0.034206044 -0.41392905 -0.11875655 0.98826444 -0.096074238 0.011425358
0.083569832 -0.033036668 -0.41647381 0.15749881 -0.9770112 0.14367788 0.017724235
0.093372717 -0.030964633 -0.41359854 -0.2377678 0.96415728 -0.117759 0.021137092
0.0069181854 -0.021724189 -0.41558978 -0.53770769 -0.80743772 0.24272387 0.065893777
0.015660703 -0.026323091 -0.41414231 -0.41048416 -0.89292222 0.18491226 0.039217003
0.022335265 -0.028908392 -0.41616693 -0.36238071 -0.91631067 0.17045519 0.032963637
0.098785706 -0.029457843 -0.41342369 -0.31985977 0.93977368 -0.12047956 0.028081831
0.10611509 -0.026645821 -0.41432381 0.41205797 -0.89197266 0.18599211 0.041960355
0.11347127 -0.023134034 -0.41382402 -0.58447951 0.8060537 -0.093065195 0.037777521
-0.0029786206 -0.013341376 -0.41588083 -0.84205091 -0.4874149 0.23103467 0.087701455
0.0032738342 -0.01934948 -0.4152275 -0.64620608 -0.72893089 0.22600317 0.068503827
0.12373979 -0.015256921 -0.41403964 -0.77255327 0.62231755 -0.1260252 0.057458308
-0.0071942573 -0.0061993143 -0.4146677 -0.94862658 -0.17206341 0.26552162 0.096171342
0.12886077 -0.0089768507 -0.41360652 -0.91379857 0.36354032 -0.18113704 0.087851539
0.13083553 -0.002341205 -0.41526625 -0.97019583 0.060224246 -0.23471901 0.11026798
-0.0076642516 0.0046733674 -0.41473886 -0.96690655 0.077101529 0.24320157 0.1000787
0.12891896 0.0091552939 -0.41574508 -0.87309283 -0.41627902 -0.25381237 0.10242864
0.13091749 0.0020299177 -0.41252536 -0.97833449 -0.10210297 -0.18010156 0.094217516
-0.0026225243 0.013771222 -0.41701996 -0.76546729 0.55073875 0.33278626 0.092755266
0.0018805742 0.018438632 -0.41445339 -0.64003861 0.73591399 0.22086443 0.07785023
0.11913748 0.019441854 -0.4182879 0.65523434 0.70970339 0.25882226 0.07914792
0.12415074 0.014802665 -0.41430303 -0.80746228 -0.56652445 -0.16448331 0.069552526
0.0095282234 0.023424923 -0.41292068 -0.48975644 0.85779059 0.15599339 0.049117256
0.014338102 0.025746301 -0.41526267 -0.42311531 0.87653768 0.22946678 0.051712438
0.022893319 0.029122492 -0.41409147 -0.34300658 0.9129945 0.22087893 0.04765163
0.097947024 0.029779607 -0.41292453 -0.32103685 -0.93749833 -0.13428414 0.02906106
0.10565017 0.026824191 -0.41350424 0.41783345 0.8872335 0.19552985 0.041934885
0.11573418 0.021659495 -0.41555533 0.59222168 0.7744081 0.22263332 0.053476389
0.028535414 0.030872848 -0.41795412 -0.27664453 0.93916404 0.2035652 0.035238903
0.035457689 0.0323065 -0.41447568 -0.20797074 0.96595782 0.15386273 0.024269219
0.045104589 0.033924442 -0.41477665 -0.14299428 0.98066658 0.13358764 0.016534088
0.055516213 0.034708541 -0.41313127 -0.047223181 0.99307913 0.10753516 0.013904237
0.063842222 0.034909397 -0.41318843 0.025066506 0.99341166 0.11182579 0.013459998
0.074982293 0.034176327 -0.41440475 0.12199426 0.98399955 0.12985508 0.015160866
0.081790969 0.03340508 -0.41503048 0.1629536 0.97536445 0.14869539 0.020968543
0.094017982 0.030872785 -0.41583717 0.30067691 0.94199765 0.14910996 0.031501859
0.027158333 -0.030565474 -0.40381494 0.31483874 0.94914407 -0.0014473998 0.0034131908
0.036071829 -0.0324337 -0.40544808 0.19115736 0.98132914 -0.021260064 0.0029679728
0.043905217 -0.033888977 -0.40511617 0.14218421 0.98975033 -0.0133395 0.001885791
0.05709707 -0.034812603 -0.40694183 0.021650767 0.99903309 -0.038263302 0.0055537764
0.065230496 -0.034826454 -0.40418234 -0.037724979 0.99928141 -0.0036881345 0.0021823342
0.074979365 -0.034181327 -0.40331379 -0.12422074 0.99223179 0.0067345253 0.0013543144
0.084936321 -0.032753658 -0.40571505 -0.18109842 0.9834618 -0.002484364 0.0019006354
0.093322493 -0.031011561 -0.40436879 -0.26729456 0.9635731 0.0089726327 0.0033573522
0.007222434 -0.021922441 -0.40428114 0.5484677 0.83616382 -0.0036538083 0.0081637697
0.015788596 -0.026346352 -0.40445098 0.41534647 0.90965748 -0.0032439304 0.0046689082
0.099381119 -0.029229403 -0.40741467 -0.35667607 0.93291438 -0.04952763 0.0086670713
0.10373966 -0.027557189 -0.40548307 -0.38136762 0.92440629 -0.0056425328 0.0037972215
0.115991 -0.021492139 -0.40686485 -0.64081156 0.76629758 -0.046351701 0.023792285
-0.0025093313 -0.013907858 -0.40349224 0.86612952 0.49971941 -0.010012586 0.036728125
0.0027645449 -0.01901762 -0.40282321 0.66814834 0.74402082 0.003283493 0.024507804
0.11923977 -0.019375205 -0.40257621 -0.65888256 0.75209463 0.015083713 0.017352812
0.12400039 -0.014986521 -0.40446416 -0.78057206 0.62502998 -0.0066951304 0.026980711
-0.0073509654 -0.005670595 -0.4059791 -0.97375321 -0.22030346 0.057192869 0.045556813
0.13113853 -0.0011903603 -0.4057337 -0.99798352 -0.0087325862 -0.062869847 0.072331198
-0.0071936622 0.0062682913 -0.40463784 -0.97003722 0.2331192 0.068433605 0.057766501
0.12907147 0.0090408465 -0.40482754 -0.93969446 -0.3419466 -0.0068354495 0.038034081
0.1310571 0.001499703 -0.40373579 -0.9897387 -0.14192344 0.016582578 0.056435317
-0.0025032673 0.013915178 -0.405754 -0.85621661 0.51373315 0.054510988 0.042582158
0.00078856351 0.017634865 -0.40426117 0.71621758 -0.69787669 -0.00074901356 0.023071898
0.11887166 0.019615067 -0.40535513 -0.63690162 -0.77090311 0.0080363024 0.020167554
0.12367243 0.015511624 -0.4050985 -0.78136837 -0.62403262 -0.0068282625 0.028479734
0.0075175962 0.022114772 -0.40788421 -0.53573096 0.84102088 0.075339966 0.021883396
0.015124836 0.026073111 -0.40490556 0.45344427 -0.89116818 -0.014408136 0.0063802637
0.022091495 0.028814863 -0.40416846 0.36225632 -0.93189418 -0.018538022 0.0042892513
0.097745568 0.029856902 -0.40896079 -0.33242032 -0.94199997 -0.0461821 0.0083314413
0.10478017 0.027157983 -0.40568641 -0.39054671 -0.92053974 -0.0089388788 0.0039709243
0.11419718 0.022656236 -0.40379873 -0.58892763 -0.80817783 0.0035921619 0.016633525
0.028762242 0.030919829 -0.40400076 0.25326237 -0.96714735 -0.022003859 0.0031217835
0.034604508 0.032129798 -0.4040319 0.22060362 -0.9753136 0.0098700477 0.0028375464
0.045074388 0.034000959 -0.40506154 0.13869272 -0.99005812 -0.023436746 0.0018776951
0.054677516 0.034653336 -0.40650615 0.059924908 -0.99807698 -0.015852939 0.0023852161
0.064358272 0.034883939 -0.40390396 -0.020641167 -0.99977988 0.0037516046 0.0016689013
0.076798141 0.03405723 -0.40480408 -0.13394386 -0.99096352 -0.0070945621 0.0020490619
0.085634679 0.032609023 -0.40472245 -0.18697469 -0.98224652 -0.015241248 0.0014938703
0.092230827 0.031242918 -0.406578 -0.24796799 -0.96834773 -0.028541591 0.004521708
0.027510934 -0.030601848 -0.39398956 0.29057214 0.95685261 -0.00092981511 0.0038171534
0.034959294 -0.032203283 -0.39475092 0.20141381 0.97948158 -0.0069558439 0.0026333206
0.044027098 -0.033797547 -0.39491999 0.12813093 0.99175674 0.0010232002 0.0010736681
0.0548761 -0.034666404 -0.3952727 0.071634516 0.99743044 0.00098447967 0.0013938874
0.064420946 -0.034853291 -0.39413312 -0.025223911 0.99967945 0.0021770345 0.0016585524
0.074096128 -0.034242693 -0.39406168 -0.11620928 0.99322248 0.0021029701 0.0012961781
0.087220319 -0.032280631 -0.39444306 -0.21082406 0.97752398 -0.00017928834 0.0023622152
0.092432886 -0.031201072 -0.39060712 -0.26128414 0.96526086 -0.0014403348 0.0028554646
0.0074522714 -0.022072205 -0.39651379 0.54901856 0.83567476 -0.015041397 0.0089631239
0.013473333 -0.025409173 -0.39495236 0.49395752 0.86942071 -0.010659899 0.0079853339
0.022161594 -0.028841764 -0.39407039 0.3460393 0.93821245 0.0037690899 0.0025952689
0.098610751 -0.029524963 -0.39507729 -0.33610404 0.94182318 0.0017782581 0.0037614694
0.10518367 -0.027003171 -0.39409968 -0.41717637 0.90881151 -0.005041603 0.0033685199
0.11488773 -0.022211049 -0.3946327 -0.57900643 0.81527936 0.0084292758 0.015498434
-0.0034840051 -0.012731322 -0.39740631 0.88317752 0.46903494 -0.0019574182 0.041123398
0.0020783679 -0.018570498 -0.39485437 0.67838275 0.7344448 -0.019691462 0.027966496
0.11996941 -0.018899763 -0.39439505 -0.69260561 0.72127831 -0.0074340082 0.024443991
0.12300017 -0.016160192 -0.39470986 -0.75450969 0.65628898 3.0984302e-05 0.031056663
-0.0077112541 -0.0045105382 -0.39458075 0.9774614 0.21108092 -0.0037372333 0.052131761
0.12916146 -0.0082678581 -0.39587706 -0.95488662 0.29680869 0.0098041864 0.045143254
0.13074575 -0.0026821811 -0.39437518 -0.9976542 0.068233155 0.0055007297 0.06862136
-0.0077647441 0.0043073888 -0.39278388 0.98720264 -0.15873805 0.015271351 0.045049503
0.12910612 0.0083626062 -0.39240894 -0.96134424 -0.27523392 0.0079689976 0.043663174
0.13104081 0.0015615477 -0.39682114 -0.99845415 -0.040949497 -0.037582114 0.070434503
-0.003307323 0.012944596 -0.39564484 0.88815892 -0.45754814 0.042702105 0.041251298
0.0025111798 0.018852524 -0.39150956 0.65201324 -0.7582075 0.00029292563 0.021858223
0.11853313 0.01983566 -0.39653137 -0.6571458 -0.75363433 -0.013947851 0.018534614
0.12424202 0.014791972 -0.39549586 -0.7777434 -0.62844223 -0.013257147 0.023698486
0.0078127086 0.022307072 -0.39464468 0.51526636 -0.85702521 0.0029229699 0.0092676831
0.01421804 0.025794106 -0.39415237 0.45640728 -0.88969219 -0.011838672 0.0054342435
0.022850094 0.029105911 -0.39753014 0.33646771 -0.94169086 0.0027741117 0.0028483495
0.09886533 0.02942729 -0.39434004 -0.34372166 -0.93893129 -0.016227776 0.0041156886
0.10440265 0.027302822 -0.39541873 -0.387281 -0.92193842 -0.0065508559 0.0034295861
0.11573496 0.021658979 -0.39529514 -0.61730099 -0.78645825 0.020563109 0.01927883
0.029295338 0.031030238 -0.39539206 0.27884749 -0.96033007 0.0031983294 0.0032106552
0.035245143 0.032262482 -0.3962563 0.21871671 -0.97578597 -0.0021785526 0.0020710004
0.044812813 0.033941723 -0.39388499 0.119412 -0.99284434 -0.0009102078 0.0015051438
0.054206293 0.034622315 -0.39585206 0.066968374 -0.99773973 -0.0055267545 0.0014022124
0.066008501 0.034755934 -0.39458847 -0.053295828 -0.9985649 -0.0052713421 0.0014709847
0.074229077 0.034235101 -0.39431706 -0.088986024 -0.99602896 0.0028038102 0.0016749424
0.084339842 0.032877196 -0.39480689 -0.17204562 -0.98507982 0.0042471564 0.0016335312
0.093938626 0.030871455 -0.39536449 -0.29292327 -0.95602781 -0.014377831 0.0039754277
0.027794693 -0.03067524 -0.38559568 0.28625906 0.95808953 0.010959919 0.0036763647
0.033528201 -0.031906895 -0.38452774 0.21670066 0.97623086 0.0037538025 0.0028032342
0.044715568 -0.03396957 -0.38388294 0.13377474 0.99100912 0.0023145701 0.001034293
0.055241652 -0.034690466 -0.38546613 0.064194173 0.99791783 0.0062466008 0.0015169519
0.062657669 -0.034971144 -0.38517681 0.008117984 0.9999665 0.0010050505 0.0021397278
0.075893313 -0.034120608 -0.38518107 -0.11637824 0.99320412 -0.0012870686 0.0011838627
0.085594743 -0.032617297 -0.38563547 -0.19923943 0.97995079 9.4673836e-05 0.0020922124
0.093943767 -0.030875057 -0.38557047 -0.29726243 0.9547956 -0.00075157359 0.0030465561
0.007111182 -0.021849947 -0.38444129 0.54105842 0.84094113 0.0085835606 0.0086999834
0.01354699 -0.025457302 -0.38601339 0.48067993 0.87688202 -0.004977697 0.0070330524
0.0220444 -0.028796799 -0.38573605 0.35685724 0.93411815 0.0087270429 0.0033528099
0.099964783 -0.029005475 -0.38619587 -0.35775802 0.93378609 -0.0072598071 0.0048099249
0.10540473 -0.026918361 -0.38713655 -0.40625969 0.91375345 -0.0027657293 0.0029746562
0.11383028 -0.022900093 -0.38482636 -0.54157138 0.84065402 -0.0011555512 0.011405859
-0.0025215698 -0.013893086 -0.38563022 0.85705358 0.51468104 0.023720464 0.045272794
0.11895163 -0.019562952 -0.3855859 -0.66815841 0.74380177 -0.017976776 0.024507368
0.12370381 -0.015397709 -0.38438317 -0.76607597 0.64257491 -0.015005349 0.026844248
-0.0070718853 -0.006843383 -0.38712573 -0.97059822 -0.23817791 0.034790471 0.055943038
0.12933926 -0.0079127382 -0.38610229 -0.96221012 0.27175823 -0.017296733 0.048330344
0.1305448 -0.0034453336 -0.38610175 -0.99581641 0.087687001 -0.025701586 0.068019316
-0.0070168898 0.0067441738 -0.38676161 0.95544356 -0.29514983 -0.00377668 0.058481134
0.12904142 0.0085503459 -0.38614455 -0.93885797 -0.34217459 -0.038240328 0.053661481
0.1306704 0.0029683951 -0.38319644 -0.98421657 -0.17301874 0.037178118 0.051782895
-0.0031600895 0.013122323 -0.38569629 0.89039803 -0.45515445 0.005076461 0.039420493
0.0028892527 0.019098882 -0.38384297 0.67615616 -0.73675835 -1.2826029e-05 0.028168889
0.11928456 0.019346025 -0.38423726 -0.67665088 -0.73630399 2.383667e-05 0.026939144
0.12317572 0.016126979 -0.38407344 -0.78447205 -0.6201632 0.0010953534 0.028041018
0.0073982123 0.022036981 -0.38536122 0.54934996 -0.83552009 -0.01099127 0.0099499077
0.014751335 0.025980651 -0.38458154 0.45721826 -0.88935101 0.002508787 0.0060659666
0.022740811 0.029063983 -0.38384667 0.3354539 -0.94204646 -0.0043704589 0.0027385291
0.10569915 0.026805401 -0.38509369 -0.42297202 -0.90613681 -0.0032873549 0.0045730732
0.11555392 0.021776957 -0.38429391 -0.61534405 -0.78824914 -0.0038668867 0.018140983
0.027979055 0.030730205 -0.38545358 0.27901515 -0.96021855 -0.011437152 0.0041310359
0.032782666 0.031752486 -0.38434672 0.24223879 -0.97018105 0.0083029531 0.0025022265
0.045956366 0.03405745 -0.38467878 0.10529404 -0.99441004 0.0078644622 0.001667119
0.057060216 0.034810182 -0.38385668 0.03253473 -0.99947047 0.00052465231 0.0019572168
0.0651737 0.034815729 -0.38710174 -0.043880709 -0.99903578 -0.0014066962 0.0011636863
0.074135266 0.034241274 -0.38400948 -0.084214963 -0.9964413 0.0035434614 0.0014979705
0.085956261 0.032542422 -0.38499671 -0.17900071 -0.98384881 -0.00042178197 0.0016654443
0.093399964 0.030998323 -0.38647553 -0.26853439 -0.96323383 -0.0083636474 0.0038181567
0.027519858 -0.030662527 -0.37431175 0.29013869 0.95689476 -0.013116038 0.0039255731
0.035610516 -0.032338154 -0.37413785 0.18952073 0.98183978 -0.0085172979 0.0026114467
0.044299789 -0.033892896 -0.37400854 0.13641053 0.99064845 0.0027818007 0.0016924153
0.053482872 -0.034574695 -0.37609375 0.075618938 0.99707609 0.010999539 0.0014457859
0.063814379 -0.03491614 -0.37646171 -0.016603144 0.99985999 0.0021142829 0.0013925798
0.073983699 -0.034251254 -0.37655938 -0.10438655 0.9945206 -0.005673239 0.0015556328
0.084894702 -0.032762282 -0.3757599 -0.18142036 0.98340553 -0.00045282219 0.0011978713
0.094533898 -0.030728744 -0.37420139 -0.28341311 0.95894498 0.010077314 0.0024506103
0.0060263625 -0.021143064 -0.37435004 0.59709787 0.80215114 -0.0052638934 0.013634686
0.016406707 -0.02661779 -0.37351209 0.41214955 0.91108751 0.007237433 0.0046747676
0.022936279 -0.029138982 -0.37249801 0.33324793 0.94281048 0.0073601701 0.0024015435
0.098608695 -0.029525751 -0.37697855 -0.34548828 0.93841052 0.0048499256 0.0047438052
0.10399115 -0.0274607 -0.3743186 -0.40473539 0.91440451 0.0073225098 0.0033147859
0.11373788 -0.022948587 -0.37385237 -0.56692922 0.82361269 -0.015922174 0.010351872
-0.0037156143 -0.012451746 -0.37502551 0.88759154 0.46061429 0.0039669937 0.037101991
0.0036881452 -0.01961945 -0.37938562 0.67079961 0.74154848 0.011571676 0.025108598
0.12392499 -0.015111885 -0.3750287 -0.77207136 0.63548309 -0.0081911134 0.027631344
-0.0070210281 -0.006976034 -0.37574798 0.95945334 0.28185925 0.0021599447 0.053882789
0.12947182 -0.0075203814 -0.37545884 -0.95919031 0.28225952 0.016835388 0.049791895
0.13057238 -0.0033406224 -0.37664333 -0.98953718 0.14394394 -0.0098108044 0.059172619
-0.0076379948 0.0047887652 -0.37236449 0.98775107 -0.15326335 0.029295076 0.054524377
0.12988044 0.0059684776 -0.37282786 -0.94659603 -0.32241771 -0.0016639293 0.037233867
0.13073981 0.0027047251 -0.37592977 -0.97494465 -0.2222729 0.008823215 0.046657387
-0.0029755086 0.013345132 -0.37515619 0.89155996 -0.45289132 0.0032027829 0.040538516
0.0022535059 0.018636495 -0.37460908 0.71273315 -0.70113528 -0.020513862 0.032291528
0.1194409 0.019244147 -0.37544045 -0.70348907 -0.71063304 -0.010186278 0.023242909
0.12343353 0.015796956 -0.37494415 -0.7876966 -0.6158973 -0.014306408 0.026845952
0.0067163794 0.021592688 -0.37334409 0.58018219 -0.81448501 -0.0017122533 0.010142229
0.014247579 0.025737287 -0.37421265 0.43908241 -0.89841443 -0.0076267985 0.00424165
0.02346475 0.029341731 -0.37341505 0.33169293 -0.94328219 0.014085913 0.0025231319
0.10491446 0.027106455 -0.373613 -0.41089657 -0.91167229 -0.0041922526 0.0025493908
0.11468198 0.02234512 -0.37365159 -0.58590579 -0.81037623 -0.0021860492 0.012544435
0.027876342 0.03068034 -0.37356529 0.30047372 -0.95378941 0.0011287803 0.0038314187
0.03551757 0.032318901 -0.37465823 0.20709181 -0.97832125 0.00066855404 0.0014296648
0.045618773 0.034028664 -0.37549707 0.11318429 -0.99357325 -0.0012194511 0.0015254654
0.054523401 0.034643188 -0.37433416 0.065286048 -0.99784017 0.007257021 0.0012586063
0.066659868 0.034715276 -0.37575477 -0.057411041 -0.99834728 0.0025815356 0.0015225472
0.075750567 0.034134943 -0.37660742 -0.11000836 -0.99392909 -0.0017958577 0.00096331356
0.085900284 0.032554016 -0.37356323 -0.18927638 -0.98192024 0.0026513475 0.0011856201
0.094162039 0.03082883 -0.37285936 -0.294346 -0.95564729 0.0099310717 0.0036374768
0.02887395 -0.030942969 -0.36235327 0.27074644 0.9626407 0.0043839221 0.0037946638
0.033414476 -0.03188334 -0.36469048 0.21994072 0.97545195 -0.010934879 0.0028797623
0.044406746 -0.033889141 -0.36291647 0.13491179 0.99085659 0.0013685732 0.00089896732
0.055720638 -0.034721997 -0.36600927 0.067451671 0.99772215 0.00092208333 0.0013521245
0.063009121 -0.034927733 -0.36352789 -0.0045095012 0.99997801 0.0048693647 0.0017869604
0.074718736 -0.03420287 -0.36816809 -0.11127777 0.99378932 -0.00011271574 0.00094409811
0.086333349 -0.032464325 -0.36591268 -0.20012841 0.9797371 -0.0079865102 0.0017648372
0.094224945 -0.030822814 -0.36621648 -0.28353453 0.95896167 -0.0008013816 0.0022210216
0.0087953582 -0.022947378 -0.3647877 0.50632149 0.86225212 0.012644445 0.0083396453
0.013347362 -0.025410594 -0.36515576 0.48579973 0.87398946 0.011876896 0.0069245943
0.02238429 -0.028927201 -0.36313713 0.35630578 0.9343521 -0.0056894096 0.0043094442
0.098577492 -0.029537722 -0.36329547 -0.30043256 0.95379984 0.0024775278 0.0022655225
0.10454666 -0.02724757 -0.36509287 -0.41161835 0.9113403 0.0053904029 0.0032663052
0.11349154 -0.023120828 -0.3649416 -0.5563305 0.83093911 0.0060475175 0.010602367
-0.0027589076 -0.013606593 -0.36473051 0.84614146 0.53257269 0.020271571 0.047895268
0.0021716992 -0.018631315 -0.36597675 0.65667206 0.75413442 -0.0079397354 0.025711304
0.12495579 -0.013939108 -0.36360875 -0.83422965 0.55091196 0.023600038 0.031770062
-0.0069690822 -0.0071310769 -0.3658475 0.97438663 0.22442822 -0.014239793 0.053484
0.12933283 -0.0077444036 -0.36547396 -0.95670241 0.29051951 0.017856531 0.049665604
0.1308849 -0.0021536695 -0.36437878 -0.99662614 0.074621946 0.03417493 0.067315221
-0.0074423775 0.0055316943 -0.36689988 0.97596967 -0.21720135 -0.017510863 0.040704671
0.12912887 0.0085253343 -0.36530143 -0.93630809 -0.35117513 0.0017527589 0.037569586
0.13053885 0.0034679971 -0.36283663 -0.97162968 -0.23492056 0.027351407 0.045425627
-0.0031127168 0.013179507 -0.36556605 0.87383258 -0.4859989 -0.014889642 0.038013618
0.0034422837 0.019459242 -0.36510673 0.65438908 -0.75598258 -0.016285306 0.024139866
0.11871611 0.019716429 -0.3674162 -0.69040006 -0.72301388 -0.02446733 0.022608418
0.12448224 0.014504991 -0.36504188 -0.8157528 -0.57839954 0.0011600341 0.035731804
0.0073492303 0.022005061 -0.3671135 0.54667878 -0.83731425 -0.0068681496 0.010049523
0.014955239 0.026041897 -0.364416 0.43684438 -0.89947969 -0.010160278 0.0039130249
0.02244192 0.028949307 -0.36493421 0.34618169 -0.93810868 0.010499575 0.002678117
0.099044487 0.029358555 -0.36555821 -0.34991756 -0.93674821 0.0077808159 0.0045268396
0.10520647 0.026994422 -0.36387825 -0.40409976 -0.91467011 0.0090468284 0.0028501684
0.11415751 0.022686882 -0.36445081 -0.57570577 -0.81765479 0.0018658256 0.018313959
0.034968939 0.032205276 -0.36505422 0.22000074 -0.97548163 0.0059372466 0.0022560093
0.043955591 0.033863381 -0.36560664 0.12166055 -0.99256402 0.0039222608 0.0015764107
0.054243453 0.034624759 -0.36347452 0.06192372 -0.99807942 0.001697163 0.0012780596
0.065489352 0.034793407 -0.36295104 -0.045367099 -0.99896944 -0.0013659728 0.0014407425
0.073705442 0.034269571 -0.36490357 -0.092142954 -0.99573785 -0.0039694482 0.0014507771
0.086027943 0.032527577 -0.36510774 -0.21108721 -0.9774645 -0.0023287791 0.0019956091
0.09232419 0.031223582 -0.36405012 -0.25178957 -0.96768111 0.013973737 0.0034847166
0.025948793 -0.030294774 -0.35833493 0.33036739 0.94385016 -0.0020607822 0.0028423474
0.031329468 -0.031451523 -0.35442057 0.24578388 0.969293 0.0078387717 0.003113806
0.04634513 -0.034079179 -0.35326949 0.11626399 0.99321711 -0.0015896136 0.0017386193
0.056993447 -0.034805782 -0.35548797 0.033891082 0.99941486 0.004616465 0.0021829919
0.06356325 -0.034903608 -0.35424432 -0.024385681 0.99969161 0.0046902737 0.00097787846
0.075647466 -0.03413973 -0.35537344 -0.11415251 0.99338031 -0.01283644 0.0015311415
0.08582966 -0.032568645 -0.35438219 -0.1896794 0.98184597 0.00046183559 0.0023014767
0.093801647 -0.030870879 -0.3561593 -0.28787035 0.95766133 -0.0039365259 0.0027002462
0.0075083976 -0.022108776 -0.35784265 0.5348528 0.84494513 0.00044722468 0.0090439748
0.015828278 -0.026368154 -0.35634273 0.43293625 0.90141571 -0.0039937967 0.0032635431
0.022554321 -0.028992437 -0.356177 0.33751038 0.94132185 5.7161992e-06 0.0029357658
0.099796072 -0.029070199 -0.35194823 -0.35011023 0.93668556 -0.0065561384 0.0046080719
0.10702037 -0.026298501 -0.3559328 -0.44221848 0.89687228 -0.0079256687 0.0053947698
