# .PCD v0.7 - Point Cloud Data file format
VERSION 0.7
FIELDS x y z normal_x normal_y normal_z curvature
SIZE 4 4 4 4 4 4 4
TYPE F F F F F F F
COUNT 1 1 1 1 1 1 1
WIDTH 573
HEIGHT 1
VIEWPOINT 0 0 0 1 0 0 0
POINTS 573
DATA ascii
-0.0056261374 0.49898684 -0.037431851 0.0056995717 -0.76832175 0.64003843 0.15303332
0.0066484339 0.49806961 -0.038298883 -0.077093318 -0.72032928 0.68933457 0.1492517
0.015778787 0.49821275 -0.037967466 -0.29346317 -0.69430947 0.65712535 0.15009756
0.025479466 0.49547786 -0.035830677 -0.52733576 -0.62934297 0.57082784 0.13867629
0.031489715 0.49174425 -0.032805737 -0.66546845 -0.46992272 0.57993478 0.09126173
-0.030041836 0.5 -0.03120774 0.44880748 -0.72103119 0.52790707 0.12136649
-0.024531318 0.5 -0.032881435 0.32331499 -0.75359106 0.57233554 0.13191885
-0.015591845 0.5 -0.03209075 0.12140919 -0.82582724 0.55069876 0.14015144
-0.0054748501 0.5 -0.031808898 -0.021843402 -0.88724864 0.46077406 0.1332349
0.0050938842 0.5 -0.033210579 -0.078813903 -0.84021187 0.53650016 0.14055845
0.014235067 0.5 -0.03320425 -0.26517195 -0.7908594 0.55156612 0.1168368
-0.044502623 -0.49333593 -0.023812978 0.5877949 0.55189294 0.59153295 0.053140357
-0.035530839 -0.49780947 -0.026068186 0.33430859 0.76792127 0.5463832 0.045558915
-0.026167657 -0.5 -0.023492666 0.20240052 0.88303256 0.42342362 0.045288797
-0.015477178 -0.5 -0.025034994 0.076354541 0.91743708 0.39048573 0.040363733
-0.0062216162 -0.5 -0.025271272 0.028383186 0.94474435 0.32657695 0.02260842
0.0038086337 -0.5 -0.023669103 -0.070284359 0.94152606 0.32952821 0.022555931
0.015105021 -0.5 -0.024638884 -0.16001312 0.89650238 0.41313353 0.040338095
0.025429232 -0.49911696 -0.025929593 -0.29234678 0.79731077 0.52804255 0.044628419
0.035266429 -0.49448571 -0.024729116 -0.48816353 0.65914023 0.57204062 0.058787521
0.042725943 -0.49097538 -0.021067038 -0.66898966 0.49509314 0.55437857 0.069418222
-0.053400554 -0.48313779 -0.023543099 0.79546696 0.16026644 0.5844202 0.045853533
-0.047066584 -0.485019 -0.028876981 0.63279021 0.35934365 0.6858927 0.053138793
0.038386501 -0.48774183 -0.028621666 -0.5953303 0.4154546 0.68773496 0.057331681
0.045141246 -0.48474258 -0.024032036 -0.75491035 0.2556991 0.60392749 0.050824352
-0.052363016 -0.47596261 -0.022384839 0.819076 -0.028430318 0.57298005 0.032830495
-0.04747076 -0.47491798 -0.026932141 0.70401114 -0.044096835 0.70881867 0.026494646
0.038217437 -0.47367749 -0.028536601 -0.65628678 -0.04634583 0.75308681 0.028008178
0.044512734 -0.47740996 -0.023865953 -0.77026796 -0.0029535501 0.63771355 0.03824709
-0.050980672 -0.46779826 -0.020477522 -0.826841 0.20205505 -0.52488816 0.021419592
-0.04516156 -0.46454272 -0.024850564 -0.68348867 0.20882592 -0.69945335 0.015428427
-0.038439382 -0.46263385 -0.029617921 -0.53953624 0.19765754 -0.81843275 0.012414902
0.035075851 -0.46388626 -0.027359745 0.66106522 0.21816352 -0.71791184 0.013043744
0.042175896 -0.46515304 -0.021094866 0.81552446 0.21585691 -0.53695965 0.019856354
-0.042326953 -0.45436251 -0.023461245 -0.6755051 0.21769981 -0.70448548 0.01299126
-0.037409618 -0.45468366 -0.02764111 -0.57014155 0.20089453 -0.79660523 0.017597359
0.029010156 -0.45225754 -0.027764371 0.57314348 0.1678807 -0.80207402 0.019332066
0.03395956 -0.45491838 -0.024789045 0.67081785 0.18995534 -0.71688247 0.014740618
-0.04118469 -0.44361898 -0.022483826 -0.69656163 0.15081775 -0.70146704 0.01957906
-0.035970423 -0.44555008 -0.026770949 -0.62449294 0.14502531 -0.76744783 0.018311491
0.027458299 -0.44286138 -0.027598131 0.56938016 0.12557721 -0.81242633 0.017081343
0.033940252 -0.44423541 -0.022685487 0.71506512 0.11510549 -0.68951619 0.019281482
-0.041650172 -0.43472722 -0.021222612 -0.74337894 0.12467841 -0.65714765 0.019254709
-0.033839446 -0.43443933 -0.027277324 0.59457368 -0.083581336 0.79968506 0.014299552
-0.029885065 -0.43781322 -0.029921122 -0.46797374 0.12049863 -0.87548888 0.015314569
0.027325762 -0.43390331 -0.027051143 -0.60876876 -0.060262524 0.79105562 0.016797675
0.03270134 -0.43366301 -0.022959016 -0.64747524 -0.076858982 0.75820082 0.01393544
-0.041317813 -0.4229261 -0.020477414 0.78250122 -0.036360208 0.6215865 0.024172349
-0.035654411 -0.42458001 -0.025441043 0.6462996 -0.024508966 0.76269001 0.017493321
-0.029479876 -0.42480403 -0.02924918 0.48419642 -0.044596478 0.87382203 0.015415932
0.02485995 -0.42515785 -0.027861724 -0.57456416 -0.079357669 0.81460321 0.016740315
0.032757554 -0.42627233 -0.022233939 -0.71187103 -0.083989665 0.69726998 0.017483367
-0.034451 -0.41456133 -0.025458202 0.60422564 -0.0095020998 0.79675663 0.013374791
-0.029228743 -0.41426268 -0.028660279 0.45967686 -0.0030487566 0.88808113 0.010277377
0.024461292 -0.41522801 -0.027400279 -0.56803507 -0.054580372 0.82119244 0.014488634
0.03208993 -0.41447735 -0.021816995 -0.73193455 -0.039143898 0.68024969 0.016868547
-0.040198706 -0.40637571 -0.020604968 0.77559131 -0.039838139 0.62997699 0.022696462
-0.034848761 -0.40612277 -0.025022851 0.62149394 -0.0054666526 0.78339982 0.015813194
-0.028407674 -0.40576243 -0.029014606 0.44657412 -0.0014755115 0.89474547 0.010579799
0.024116931 -0.40501544 -0.02743548 -0.5646891 -0.012856675 0.82520354 0.015532563
0.031973157 -0.40631527 -0.021733556 -0.69323754 -0.037109166 0.71975321 0.020352157
-0.040362559 -0.39693478 -0.020855883 0.74817127 -0.0052200025 0.66348505 0.024763914
-0.03400366 -0.39459234 -0.026114339 0.6068334 0.038262941 0.79390752 0.01389122
-0.028327158 -0.39680701 -0.02936014 0.4137302 -0.002244238 0.91039675 0.0092604216
0.025209123 -0.39498386 -0.027117962 -0.58233982 0.039442636 0.81198806 0.017161416
0.032126125 -0.39301768 -0.022163022 -0.72544754 0.014772464 0.68811893 0.023076963
-0.040756676 -0.38566479 -0.020961365 0.78230482 0.026708828 0.62232298 0.021176182
-0.034288123 -0.38518587 -0.026180351 0.63076794 0.0068768458 0.77594101 0.015884554
-0.029416159 -0.38563871 -0.029106554 0.42898607 0.030829582 0.90278482 0.0093302596
0.025009168 -0.38594708 -0.027553027 -0.55354768 0.020108541 0.83257461 0.01334531
0.032363366 -0.38381293 -0.022331916 -0.71765816 0.056895941 0.69406748 0.020916782
-0.04082514 -0.37537527 -0.021342456 0.76483554 0.047016989 0.64250761 0.023202153
-0.033839934 -0.37519544 -0.026821624 0.56593418 0.042067986 0.82337648 0.016057309
-0.029420557 -0.37610611 -0.029422503 0.45767346 0.020571195 0.8888824 0.010104088
0.025855938 -0.37488627 -0.027441844 -0.60156602 0.047548994 0.79740667 0.015022947
0.032809626 -0.37407291 -0.022319822 -0.72321355 0.047394983 0.68899626 0.016347848
-0.041143149 -0.36591291 -0.021447649 0.73480475 0.045613971 0.67674321 0.019230206
-0.035480175 -0.36365327 -0.02617259 0.63198042 0.056187477 0.77294481 0.015955994
-0.029793831 -0.36071473 -0.029803421 0.44530907 0.052997839 0.89380711 0.010375108
0.025622874 -0.36386594 -0.027974775 -0.55592942 0.057875965 0.82921219 0.013095273
0.032912452 -0.36479628 -0.022636188 -0.71997756 0.045089923 0.69253099 0.016926702
-0.041986428 -0.35476029 -0.021474199 0.76055294 0.086980887 0.64342326 0.020917356
-0.036143523 -0.35492247 -0.02636124 0.66138166 0.057569142 0.74783695 0.016403506
0.025441548 -0.35548797 -0.028589088 -0.52826154 0.058199167 0.84708476 0.010561184
0.033488389 -0.35523686 -0.022809912 -0.71501124 0.055333719 0.69691974 0.016504401
-0.042720914 -0.34345588 -0.021747788 0.75494748 0.095864892 0.64874047 0.022356207
-0.035301499 -0.34484974 -0.027631696 0.58965629 0.067128345 0.80485976 0.011617754
0.027249167 -0.34494787 -0.028258169 -0.56921327 0.059069447 0.8200652 0.011902158
0.033812944 -0.34552148 -0.023288671 -0.68581581 0.071263388 0.72427773 0.010732907
-0.043586075 -0.33480796 -0.021660659 0.76299065 0.10344829 0.63807815 0.019085336
-0.037099835 -0.33666107 -0.027133064 0.63036418 0.05716363 0.77419204 0.015020513
0.027367115 -0.33201841 -0.029060451 -0.51926035 0.062979259 0.85229242 0.008661028
0.034014899 -0.33637977 -0.023963986 -0.68722725 0.060077891 0.7239539 0.01104215
-0.042694643 -0.3251211 -0.023381572 0.71031278 0.051716357 0.70198375 0.011099763
-0.036997765 -0.32384992 -0.028103543 0.58536261 0.06378065 0.80825901 0.011638882
0.028113075 -0.32438958 -0.029144585 -0.53452003 0.064735092 0.84267294 0.0090259556
0.034195263 -0.32475913 -0.02466877 -0.67781544 0.076071121 0.73128617 0.012263186
-0.045166653 -0.31445649 -0.021900753 0.77142286 0.054237269 0.63400722 0.019585716
-0.036494132 -0.31491375 -0.029029872 0.58071405 0.070341617 0.81106311 0.0085016601
0.028414309 -0.31604505 -0.029532749 -0.51760209 0.049572948 0.85418415 0.009133528
0.03523992 -0.31499854 -0.024591649 -0.69347847 0.07823801 0.71621674 0.014392129
-0.04314699 -0.30410838 -0.024771905 0.68578243 0.067503653 0.72466946 0.015483617
-0.037247051 -0.3051967 -0.029243832 0.59364092 0.064682059 0.80212629 0.012623506
0.029135259 -0.30372399 -0.029938577 -0.52386749 0.059319817 0.84973168 0.0082535297
0.03716914 -0.30495071 -0.023563441 -0.68828863 0.076630503 0.72137827 0.013724019
0.040309928 -0.30343822 -0.020688735 -0.82339913 0.089534357 0.56035465 0.0170279
-0.044230971 -0.295111 -0.024466209 0.69611216 0.074392684 0.71406835 0.011699731
-0.038360324 -0.29534182 -0.029253997 0.5631175 0.045634456 0.82511586 0.0087824548
0.035086688 -0.294238 -0.026350841 -0.66565591 0.088902779 0.74094439 0.014151483
0.04104425 -0.29763535 -0.020470439 -0.83239305 0.065715849 0.55027556 0.018396262
-0.045010369 -0.28572354 -0.024532963 0.71245104 0.073695704 0.69784129 0.012210407
-0.039482944 -0.28538442 -0.029265553 0.58387697 0.053613048 0.81006998 0.012671656
0.035089578 -0.28617761 -0.027148366 -0.66759527 0.050076142 0.7428385 0.015078439
0.042043373 -0.2847383 -0.020600501 -0.81502551 0.063609943 0.57592297 0.016426273
-0.05078198 -0.27057374 -0.020040747 0.85069805 0.070905387 0.52085042 0.015330524
-0.044860415 -0.27519581 -0.0255433 0.6912812 0.060378991 0.7200588 0.014279397
0.036074843 -0.27534005 -0.02708398 -0.6932196 0.045315128 0.71930033 0.0137935
0.041628525 -0.27473536 -0.021870339 -0.79677069 0.056907862 0.60159624 0.013482716
-0.051248774 -0.26018927 -0.020617343 0.84398484 0.084335692 0.52969527 0.017113952
-0.044963852 -0.2656157 -0.02621462 0.69961876 0.050089046 0.71275848 0.014052269
0.037404563 -0.26663893 -0.026557921 -0.7041297 0.050768297 0.70825416 0.0165805
0.042434528 -0.2659196 -0.02183426 -0.80118632 0.080052547 0.59303629 0.01345419
-0.051081985 -0.25686517 -0.021050297 0.84744889 0.058091577 0.5276891 0.018094463
-0.046931401 -0.25541621 -0.025244132 0.71693182 0.072636634 0.69334894 0.015774503
0.036789477 -0.25508085 -0.028173421 -0.66765106 0.049795352 0.74280715 0.015780944
0.042116303 -0.25529891 -0.023005225 -0.79601866 0.067102104 0.60154104 0.014202782
-0.051483348 -0.24374796 -0.021532422 0.84144258 0.038171932 0.53899664 0.015689554
-0.045389183 -0.24455029 -0.027471572 0.66376585 0.04943024 0.74630529 0.013882319
0.038320567 -0.24656111 -0.027338691 -0.69833875 0.041640677 0.71455514 0.01304102
0.043144818 -0.24620655 -0.022622192 -0.79046988 0.0542184 0.61009651 0.013953396
-0.051679574 -0.23523471 -0.021795977 0.83986187 0.058158413 0.53967541 0.014877362
-0.047244765 -0.23437561 -0.026286004 0.72069776 0.037192918 0.69225097 0.015394109
0.037793413 -0.234014 -0.028607462 -0.64575166 0.02488655 0.76314193 0.014733928
0.042923436 -0.23531954 -0.023490731 -0.76274484 0.058946244 0.64400756 0.0080243899
-0.050892696 -0.22495754 -0.023296991 0.77540374 0.030296249 0.63073856 0.016630761
-0.047634169 -0.22468951 -0.026498346 0.70760864 0.016372005 0.70641482 0.017545959
0.038319442 -0.22486237 -0.028678292 -0.65238219 0.063203335 0.75525016 0.015653493
0.043271892 -0.22409061 -0.023884928 -0.72766942 0.053538818 0.68383539 0.010438014
-0.051549297 -0.21294875 -0.023358338 0.78866166 0.058183078 0.61206824 0.017179158
-0.047637332 -0.21610315 -0.027020881 0.69930559 0.01737559 0.71461165 0.017351605
0.038889762 -0.21506745 -0.028720463 -0.66284347 0.048231408 0.74720293 0.015278945
0.043176901 -0.21545343 -0.024448322 -0.73010886 0.054135554 0.68118304 0.012037704
-0.052467093 -0.20607546 -0.022835324 0.79987568 0.036662426 0.59904492 0.014309809
-0.047037609 -0.20379655 -0.028360432 0.66620141 0.038264997 0.7447896 0.014561261
0.039160382 -0.20676434 -0.028964242 -0.66035175 0.033928182 0.7501896 0.013603252
0.043307628 -0.20446205 -0.024955885 -0.7201845 0.055196382 0.69158345 0.010984905
-0.052641988 -0.19431242 -0.023265418 0.77634275 0.046082787 0.6286242 0.016596653
-0.047371048 -0.19468598 -0.028551873 0.68910092 0.043579437 0.72335386 0.013726854
0.039158002 -0.19700097 -0.029564248 -0.64500362 0.024055544 0.7638008 0.013236004
0.043620754 -0.1962966 -0.025167301 -0.73169672 0.040584616 0.68042117 0.011202648
-0.053701378 -0.18446933 -0.022543 0.80118239 0.032851942 0.59751779 0.011556999
-0.047434613 -0.18460114 -0.02881203 0.68178654 0.0095888618 0.73148829 0.014490996
0.039847225 -0.18782368 -0.029230574 -0.65982878 0.012871754 0.75130576 0.013065069
0.044216312 -0.18368655 -0.025031736 -0.75405079 0.033105388 0.6559813 0.011142661
-0.052141368 -0.17333744 -0.024416756 0.74500036 0.030757323 0.66635466 0.01269439
-0.047931798 -0.1758129 -0.028554181 0.70573896 0.016690083 0.70827538 0.013197483
0.039722972 -0.1732434 -0.029730465 -0.65115988 0.010094482 0.75887346 0.013389763
0.045889121 -0.17431772 -0.023576016 -0.75801367 0.021466706 0.65188539 0.011500066
-0.053446461 -0.16441074 -0.023251902 0.77921104 0.0035962593 0.62675136 0.015149391
-0.048909321 -0.16479769 -0.027884636 0.68379945 0.016689537 0.72947913 0.014590571
0.044682939 -0.16538619 -0.024930397 -0.71443152 0.03584943 0.69878638 0.011788166
-0.052538969 -0.15511696 -0.02456395 0.73326153 0.030518241 0.67926145 0.011382437
-0.048438281 -0.15627825 -0.02856617 0.68145251 0.014332314 0.731722 0.014070294
0.043695793 -0.15630658 -0.026231574 -0.70828611 -0.012619713 0.70581269 0.012384904
-0.054045171 -0.14365566 -0.023210587 0.76229095 0.012770015 0.6471085 0.0092671905
-0.048789207 -0.147154 -0.028459996 0.68772519 0.0069424226 0.72593778 0.01399786
0.046614327 -0.14388159 -0.023569947 -0.76524943 0.020327644 0.64341283 0.010781477
-0.053190641 -0.13438095 -0.024321415 0.78849912 -0.0039466433 0.6150232 0.013415436
-0.049225122 -0.13380244 -0.028363073 0.68696928 0.002593609 0.72668183 0.013780556
0.045113105 -0.13476333 -0.025295699 -0.70889115 0.033549618 0.70451951 0.012583069
-0.053405266 -0.12534322 -0.024121866 0.77192193 0.0063139335 0.63568604 0.015411202
-0.048298433 -0.12741731 -0.029253537 0.67949343 -0.010873144 0.73360097 0.012610676
0.045709644 -0.12399008 -0.024562307 -0.7548719 0.010681535 0.65578526 0.014064533
-0.053752791 -0.11400986 -0.023532782 0.78247041 -0.0087871533 0.62262577 0.0099772718
-0.048528083 -0.11712977 -0.02890737 0.67747819 -0.010309993 0.73547059 0.013650705
0.044252891 -0.11510296 -0.026089791 -0.7039789 -0.0018789106 0.71021843 0.013686624
-0.053727947 -0.10441452 -0.023431385 0.78496629 -0.011443405 0.61943287 0.015151593
-0.048108127 -0.10507746 -0.029175257 0.65943122 -0.020386484 0.75148851 0.011333176
0.045110237 -0.10506564 -0.025101323 -0.71470708 0.0077796858 0.69938064 0.013425414
-0.054568846 -0.095796026 -0.022500779 0.81690335 -0.010981307 0.57667005 0.016044039
-0.048208833 -0.092872098 -0.028932434 0.66501689 -0.00071520521 0.7468279 0.012951488
0.04643384 -0.092774011 -0.023558652 -0.75585055 -0.012768633 0.65461969 0.01062568
-0.052534524 -0.086329505 -0.0245107 0.74054903 0.013247555 0.67187172 0.012001052
-0.048447467 -0.084772699 -0.028603371 0.69948012 0.0078355288 0.71460915 0.013156266
0.045157738 -0.085910618 -0.024862058 -0.70165879 -0.022854885 0.71214646 0.012211308
-0.052337751 -0.074760802 -0.024663694 0.73984468 -0.014735319 0.6726163 0.010528595
-0.048432019 -0.073033892 -0.028479597 0.67807126 -0.0018163545 0.73499388 0.014404401
0.045627419 -0.075182624 -0.024125272 -0.76127833 -0.010679273 0.64833736 0.011451569
-0.052666731 -0.06524507 -0.023976881 0.76316947 -0.021633253 0.64583617 0.01029173
-0.048478901 -0.065279275 -0.028155781 0.70973498 -0.030755192 0.70379704 0.012732511
0.045213945 -0.066181511 -0.024385329 -0.73451269 -0.017489651 0.67836958 0.013632502
-0.052194722 -0.054114588 -0.023960901 0.74384969 -0.024996052 0.66787934 0.011617239
-0.048743606 -0.057377674 -0.027526289 0.69012463 -0.041539412 0.7224974 0.013543147
0.039439447 -0.052506108 -0.029477913 -0.62601149 -0.0048438143 0.77979875 0.011308213
0.044889759 -0.054184623 -0.024034414 -0.73643517 -0.014635915 0.67634982 0.013487647
-0.052439421 -0.045283373 -0.023220329 0.76997906 -0.049572632 0.63614053 0.014767812
-0.048438281 -0.04339708 -0.027168708 0.7034778 -0.027625218 0.71018016 0.014279293
0.044067174 -0.045990087 -0.024556983 -0.73343724 -0.033708043 0.67892087 0.013845997
-0.052625559 -0.035861559 -0.022597518 0.81721789 -0.043425001 0.57469046 0.014473096
-0.047692683 -0.034390468 -0.027474852 0.70189774 -0.019198855 0.71201897 0.016130663
0.038860917 -0.035094507 -0.029226372 -0.64440399 -0.027280044 0.76419854 0.014477964
0.043354489 -0.035508316 -0.024800893 -0.71239239 -0.037573867 0.70077479 0.013723725
-0.052554417 -0.025417721 -0.022185635 0.83609658 -0.045283422 0.54671007 0.014633
-0.046986345 -0.02573836 -0.02775926 0.67332643 -0.029196635 0.73876858 0.016265551
0.038673498 -0.026139081 -0.028989345 -0.65626067 -0.030584171 0.75391412 0.015170035
0.043473404 -0.025358677 -0.024243681 -0.73991686 -0.049670268 0.67086202 0.017120807
-0.052163899 -0.016065788 -0.022143522 0.82485712 -0.051373243 0.56300217 0.013376396
-0.047055863 -0.014805496 -0.027178306 0.70256394 -0.023413928 0.71123534 0.017192984
0.038394686 -0.01527384 -0.028752031 -0.67298281 -0.044583444 0.73831326 0.013983618
0.042697895 -0.014821333 -0.02452476 -0.72513628 -0.033701796 0.6877802 0.012854706
-0.052068252 -0.0080584213 -0.021812249 0.82509565 -0.039946485 0.56357914 0.013874033
-0.046722844 -0.0033700874 -0.026806911 0.6858198 -0.035171822 0.72692102 0.014689543
0.038096868 -0.0056905267 -0.028494064 -0.65664148 -0.038478766 0.75322074 0.014603907
0.043909233 -0.0055649653 -0.022702135 -0.78893715 -0.040928654 0.61310929 0.013333447
-0.051145602 0.0017157751 -0.022099392 0.83301228 -0.050472099 0.55094749 0.013785678
-0.04582528 0.0042448309 -0.027104191 0.66856945 -0.038710471 0.74264139 0.01545595
0.03770097 0.004706169 -0.028100422 -0.66520894 -0.041938256 0.74547851 0.015753036
0.042935353 0.0042623328 -0.022966763 -0.79095191 -0.070080131 0.60785186 0.012783721
-0.050134134 0.01537422 -0.022055056 0.80148971 -0.059569944 0.59503412 0.020611024
-0.044916894 0.014326401 -0.027194602 0.66726536 -0.053516585 0.74289495 0.01491507
0.037748054 0.016107893 -0.027149351 -0.67927682 -0.034124214 0.73308831 0.015520022
0.042322289 0.014111853 -0.022843631 -0.79363704 -0.06986814 0.60436642 0.015100363
-0.0506813 0.020853098 -0.021105893 0.82817119 -0.069843248 0.55610651 0.014160819
-0.044980325 0.024676949 -0.026322685 0.66484141 -0.068294488 0.74385595 0.014634348
0.036083881 0.024588214 -0.02811332 -0.67983001 -0.0392907 0.73231649 0.014520342
0.042090658 0.023322921 -0.022396645 -0.80275917 -0.081223853 0.59074569 0.015669579
-0.050534505 0.033543881 -0.020253547 0.83655065 -0.075512707 0.54266095 0.015599249
-0.044249702 0.034475178 -0.026308227 0.69942325 -0.084187888 0.70973194 0.01249325
-0.039475307 0.038676329 -0.029836748 0.57442737 -0.047522563 0.81717485 0.01260295
0.036299739 0.034441032 -0.027115168 -0.69604611 -0.048767351 0.71633899 0.014488787
0.042375296 0.034598928 -0.02127091 -0.81131881 -0.061123375 0.58139974 0.016226014
-0.044864267 0.044045135 -0.025037603 0.70436931 -0.081099771 0.70518559 0.010456822
-0.038913198 0.044578943 -0.029817699 0.55834329 -0.066807985 0.82691562 0.010011068
0.035655174 0.045333162 -0.026864545 -0.66002935 -0.062270354 0.7486546 0.012162536
0.042111542 0.043674439 -0.020842345 -0.81605995 -0.076974787 0.57281852 0.014889577
-0.046093401 0.055980999 -0.022840032 0.7503987 -0.049500104 0.65912938 0.01482763
-0.038420729 0.057576548 -0.029251168 0.60063469 -0.063191764 0.7970224 0.015935723
0.035733927 0.054276742 -0.026051244 -0.67144805 -0.078375824 0.73689532 0.013252535
0.040803399 0.056289211 -0.021067388 -0.83092588 -0.070265293 0.55192834 0.018043138
-0.042524196 0.064537734 -0.025514282 0.67061341 -0.0569028 0.73962128 0.012418498
-0.038073689 0.064467557 -0.028947659 0.61574304 -0.057226259 0.78586614 0.014163082
0.02947389 0.069153979 -0.029483754 -0.52324289 -0.039366189 0.85127389 0.0090943919
0.034491755 0.064212956 -0.026364306 -0.67869663 -0.076222174 0.73045266 0.012418218
0.040709216 0.063246302 -0.02049733 -0.81768119 -0.1104844 0.56496966 0.016654033
-0.043594524 0.074759349 -0.02349533 0.70484591 -0.076527819 0.70522046 0.0097916834
-0.037660111 0.076244317 -0.028325647 0.60491484 -0.061554197 0.79390746 0.014876489
0.028901434 0.07536149 -0.029359883 -0.53691536 -0.046548698 0.84235096 0.010691533
0.035451386 0.075101428 -0.024351222 -0.69477099 -0.066750668 0.71612674 0.011492222
-0.042656764 0.087002501 -0.023246726 0.72266001 -0.072121203 0.68743074 0.014800251
-0.037290253 0.085984245 -0.027792305 0.63212603 -0.077502057 0.77097994 0.014573232
0.028239608 0.08538527 -0.029008761 -0.55994892 -0.07475803 0.82514757 0.015294167
0.034664217 0.084309325 -0.024230745 -0.69398433 -0.065315649 0.71702141 0.012497509
-0.041864142 0.095902443 -0.02317444 0.70730555 -0.071040481 0.70332932 0.017856741
-0.036667958 0.093123913 -0.027621536 0.61855459 -0.077175498 0.78194255 0.014049273
0.026931968 0.092700548 -0.029227084 -0.50267053 -0.079143219 0.86084765 0.0091208993
0.033719003 0.096227683 -0.024079274 -0.68378276 -0.070740663 0.72624844 0.010440184
-0.042121816 0.10116646 -0.022421604 0.75820035 -0.07048817 0.64820039 0.015205887
-0.035354931 0.10544157 -0.027450975 0.61433595 -0.068589985 0.78605771 0.011840715
0.026957206 0.10278863 -0.028475637 -0.5518021 -0.066284388 0.83133686 0.012643318
0.034109272 0.10453656 -0.023002258 -0.67499924 -0.053558186 0.73587191 0.01077825
-0.041926891 0.11440208 -0.021307351 0.75917178 -0.095346473 0.64386886 0.020349195
-0.034380771 0.11647161 -0.027193926 0.60124779 -0.066038013 0.79632908 0.013180147
-0.029876791 0.11538603 -0.029905688 0.47122496 -0.076273233 0.87870902 0.013763403
0.026765313 0.11654654 -0.027533459 -0.55804294 -0.074242637 0.82648414 0.011891661
0.033449773 0.11613738 -0.022499807 -0.70955592 -0.080545828 0.70003057 0.016232466
-0.041139897 0.12447991 -0.021034773 0.75330657 -0.1030494 0.64954597 0.02140853
-0.035467111 0.12522508 -0.025648335 0.64851314 -0.082010753 0.7567727 0.016501008
-0.029290212 0.12455094 -0.029516274 0.49680236 -0.078472428 0.86430866 0.016649803
0.025618317 0.12467846 -0.027546588 -0.59995359 -0.085602298 0.79544199 0.014926749
0.032296035 0.12524496 -0.022685988 -0.69443667 -0.10556932 0.71176732 0.018641727
-0.04099096 0.13071513 -0.020535775 0.7676211 -0.09292043 0.63413227 0.026741555
-0.03527882 0.13600203 -0.024817938 0.65329999 -0.042721156 0.75589287 0.017219396
-0.028486408 0.13410933 -0.029220656 0.45477489 -0.071365714 0.88774252 0.010421364
0.024618387 0.13460034 -0.027336923 -0.57065892 -0.073357373 0.81790406 0.012655813
0.032604862 0.13427912 -0.021450216 -0.72374642 -0.070958711 0.68640798 0.013917401
-0.033875775 0.1471968 -0.024726802 0.63159722 -0.075350784 0.77162641 0.013594144
-0.027549827 0.14543973 -0.028753428 0.43400198 -0.090785109 0.89632607 0.0089018857
0.01850277 0.14516519 -0.029822271 -0.41249335 -0.090188079 0.90648514 0.010382947
0.023260899 0.14642322 -0.027180323 -0.5274176 -0.063087396 0.84726065 0.014096632
0.031606477 0.1445135 -0.021368073 -0.7447657 -0.10335906 0.65927315 0.022373345
-0.034731913 0.15501577 -0.023542762 0.6246267 -0.071517974 0.77764177 0.012949659
-0.026658459 0.15557712 -0.028413469 0.43678069 -0.072700448 0.89662546 0.0082979528
0.018235058 0.15578465 -0.029138936 -0.39309251 -0.089773543 0.915106 0.012306782
0.024205845 0.15426084 -0.025986543 -0.58890897 -0.085188195 0.80369717 0.017302057
0.03008198 0.15846825 -0.021415556 -0.69085026 -0.066356696 0.71994632 0.021437895
-0.034381445 0.16431782 -0.023146966 0.60305113 -0.06292104 0.7952171 0.012972748
-0.025984522 0.16446087 -0.028092066 0.41763437 -0.065099783 0.90628004 0.0089349439
0.018011685 0.1661364 -0.028429968 -0.40026635 -0.079673424 0.91292882 0.010503071
0.02556284 0.16298561 -0.024426466 -0.64792454 -0.065167315 0.75891173 0.021544572
0.03021935 0.16384938 -0.020733507 -0.73674023 -0.051500823 0.67421168 0.029098202
-0.033186737 0.17552148 -0.022957403 0.57964367 -0.080626316 0.81087148 0.014267191
-0.023202108 0.17550994 -0.028414402 0.37518343 -0.061547957 0.924905 0.012209046
0.01616629 0.17525369 -0.02844516 -0.36747068 -0.087070897 0.92595029 0.011622548
0.026355414 0.17533402 -0.022804661 -0.6224885 -0.070738785 0.7794255 0.016172098
-0.033171866 0.18367344 -0.022503398 0.58042794 -0.082863852 0.81008452 0.014086161
-0.023546496 0.18476471 -0.027735472 0.36287105 -0.06905058 0.92927742 0.013474171
-0.018218962 0.18359046 -0.0295552 0.32336631 -0.090379 0.94194794 0.013113306
0.015973844 0.1858995 -0.027808627 -0.36050183 -0.055357628 0.93111438 0.013351573
0.025330396 0.18453626 -0.02285064 -0.60625404 -0.082250595 0.79100639 0.014778967
-0.032195687 0.1938521 -0.022412384 0.56844145 -0.067057997 0.81998634 0.017121449
-0.02514866 0.19411229 -0.026277801 0.42038223 -0.073131286 0.9043951 0.016346162
-0.017610217 0.19552763 -0.028969185 0.29562137 -0.067264184 0.95293421 0.013889385
0.0088439295 0.19575809 -0.029480072 -0.25674391 -0.03148891 0.96596634 0.014237675
0.014859852 0.19486135 -0.027548926 -0.35298833 -0.074664593 0.93264377 0.010483054
0.023950072 0.19360165 -0.023058897 -0.54092771 -0.056153342 0.83919251 0.018934323
-0.031507716 0.20363645 -0.0221164 0.59912026 -0.089471415 0.79564422 0.025973085
-0.024571029 0.20335609 -0.025900628 0.46159309 -0.079376005 0.88353336 0.018853545
-0.015751999 0.20501113 -0.028804937 0.25106007 -0.067320228 0.96562761 0.010471187
-0.0083312076 0.20782623 -0.029851515 0.12485704 -0.05915992 0.99040943 0.0096013611
0.0062756436 0.20639831 -0.029277507 -0.21095416 -0.062154099 0.97551793 0.011032359
0.014316743 0.20552444 -0.027053867 -0.38180462 -0.062335465 0.92213851 0.0087535745
0.022804486 0.20596245 -0.02281042 -0.51685488 -0.054215301 0.85435462 0.017332977
-0.031787891 0.2158041 -0.020975364 0.68706143 -0.036064856 0.72570372 0.030564614
-0.02520971 0.21399505 -0.024811681 0.45519796 -0.06355761 0.88811892 0.023331707
-0.015227935 0.21489677 -0.028355049 0.24421288 -0.07014183 0.96718156 0.013069416
-0.0051483358 0.21448901 -0.029703788 0.063143462 -0.077147104 0.99501818 0.013478739
0.0041087223 0.2163534 -0.028948052 -0.18576393 -0.069591239 0.98012692 0.014872134
0.013769463 0.21418931 -0.026637116 -0.35659346 -0.065535143 0.93195832 0.01145159
0.022942172 0.21480651 -0.022064213 -0.55296141 -0.050731175 0.83166099 0.027020378
-0.030956384 0.22244486 -0.021141909 0.61850262 -0.072299078 0.78244954 0.031850226
-0.024767976 0.22472243 -0.02438971 0.51779038 -0.033353794 0.85485715 0.019793281
-0.016288366 0.22455339 -0.027570473 0.26785782 -0.054066129 0.96194017 0.010257342
-0.0034685354 0.22421718 -0.029239221 -0.019271558 -0.079560727 0.99664372 0.014940606
0.0056075165 0.22320302 -0.028436501 -0.22574623 -0.076117985 0.97120786 0.0092732459
0.015984222 0.22590394 -0.025139403 -0.45326659 -0.047121014 0.89012873 0.014245247
0.023297347 0.22645724 -0.021153999 -0.64587778 -0.051392935 0.76170909 0.029126095
-0.030737283 0.23372145 -0.020544993 0.70381296 -0.063549832 0.70753711 0.028280176
-0.025292667 0.23510276 -0.023607705 0.52336639 -0.050414242 0.85061508 0.019122571
-0.015045051 0.23338665 -0.027408078 0.28187457 -0.056171738 0.95780551 0.0098314043
-0.0055528488 0.23557493 -0.0286 0.043226745 -0.045136143 0.99804521 0.012164623
0.0054976074 0.23655772 -0.027778506 -0.22001697 -0.040184703 0.97466797 0.0098408014
0.01503646 0.23505202 -0.025020966 -0.47661564 -0.049521834 0.87771583 0.017398113
0.022849394 0.23416106 -0.020966947 -0.64325649 -0.041570421 0.76452136 0.036695059
-0.026345586 0.24441232 -0.022393741 0.59302413 -0.079280198 0.80127215 0.025984814
-0.01640312 0.24388218 -0.026573554 0.30593064 -0.084117748 0.9483304 0.012695709
-0.003869843 0.24612063 -0.028129764 0.0017149994 -0.05286127 0.99860036 0.013121575
0.0038307719 0.2450497 -0.027668582 -0.18244018 -0.052452531 0.98181683 0.013294831
0.015503019 0.24425197 -0.024257638 -0.47508901 -0.047496565 0.87865496 0.019410705
0.021722162 0.24585322 -0.020956744 -0.64935952 -0.055169132 0.75847775 0.029567653
-0.023884522 0.25401455 -0.02317331 0.51512927 -0.04335307 0.85601538 0.0248747
-0.015495625 0.25321051 -0.026342934 0.3227056 -0.045266513 0.94541633 0.016882092
-0.0060058776 0.25559002 -0.027579928 0.024374917 -0.065541528 0.99755204 0.014031818
0.0063953586 0.25496298 -0.026648557 -0.25200313 -0.050088614 0.96642923 0.015167843
0.014541979 0.25472158 -0.024189226 -0.47452012 -0.064118281 0.87790632 0.018149216
0.021649225 0.25584993 -0.020388624 -0.59592265 -0.057241697 0.8009991 0.031410869
-0.024372773 0.2647779 -0.022441879 0.53497761 -0.026986279 0.84443516 0.03192392
-0.014871493 0.26386771 -0.026080115 0.28953421 -0.028737202 0.95673621 0.0099944891
-0.0045850445 0.26429856 -0.02738302 0.022866901 -0.064594835 0.99764955 0.013924636
0.0048302519 0.26434314 -0.026587525 -0.17719355 -0.051161241 0.98284537 0.014881524
0.015611039 0.26518893 -0.023172254 -0.48314181 -0.036508389 0.8747806 0.01838927
0.020265559 0.26363119 -0.020831812 -0.61307967 -0.084754243 0.78546172 0.034383066
-0.024481568 0.27613306 -0.02202365 0.54285985 -0.016147055 0.83966804 0.020116566
-0.015261441 0.27493939 -0.025551235 0.27073357 -0.028715327 0.96222597 0.010507359
-0.0050241048 0.27606064 -0.026993705 0.033676688 -0.019679699 0.99923897 0.012862841
0.0057334886 0.27326545 -0.026187781 -0.27166435 -0.026494477 0.96202731 0.014850258
0.01623825 0.27440861 -0.022574941 -0.48702553 -0.067425065 0.87078124 0.018261079
0.020370888 0.2771382 -0.020293018 -0.61968559 -0.014937896 0.78470796 0.031191466
-0.025258088 0.28431663 -0.02129714 0.56687301 -0.041383475 0.82276511 0.026905457
-0.015183872 0.28481206 -0.02527279 0.28171042 -0.01050352 0.9594419 0.010292813
-0.005044498 0.2857556 -0.026766803 0.045887239 -0.0018368681 0.99894494 0.012709077
0.0065462207 0.28593686 -0.025675045 -0.27689072 -0.025774214 0.96055573 0.014511706
0.016135879 0.28480065 -0.022327587 -0.5048331 -0.021970993 0.86293727 0.017998889
-0.022823539 0.29491001 -0.022238746 0.45157054 0.0037705945 0.89222741 0.024526173
-0.01520373 0.29520303 -0.02506664 0.2947894 -0.01504159 0.95544386 0.010940858
-0.0045794058 0.2945118 -0.026531179 0.048952509 -0.026479308 0.99845004 0.013602412
0.0042805132 0.29591745 -0.025830701 -0.16430512 -0.019421993 0.98621839 0.015854603
0.01523927 0.29476744 -0.022482736 -0.49709886 -0.025127612 0.86733001 0.018323049
-0.023857841 0.30466372 -0.021578964 0.50578439 -0.01705906 0.86249119 0.032888006
-0.014656094 0.30527434 -0.025006846 0.24207938 0.00099704019 0.97025591 0.013980777
-0.0059905094 0.30491686 -0.026317352 0.040502179 -0.030338051 0.99871874 0.014209387
0.0041010082 0.30394343 -0.025727436 -0.18836062 0.0025648978 0.98209661 0.020092603
0.014629807 0.3065964 -0.022588246 -0.45455742 0.030203234 0.8902052 0.021263046
-0.023600772 0.31577268 -0.021704104 0.47533014 -0.00074356806 0.87980717 0.021283926
-0.014693794 0.31448179 -0.025069585 0.28377256 -0.012149699 0.95881462 0.010461111
-0.0052815215 0.31513876 -0.026364906 0.020074321 -0.019251155 0.99961311 0.014901604
0.0048948103 0.31470591 -0.025587056 -0.18300237 -0.029093675 0.98268187 0.020842887
0.01524388 0.31470543 -0.022165539 -0.50275236 0.0028812601 0.86442572 0.018827861
-0.023008365 0.32444 -0.022005975 0.46468356 0.0014462885 0.88547564 0.034312312
-0.014313287 0.32447445 -0.02507481 0.22052847 -0.0041812491 0.97537154 0.01390393
-0.0041200472 0.32520232 -0.026427053 0.031156946 0.031109868 0.99903023 0.013738504
0.0067144404 0.32517695 -0.025277762 -0.27034205 -0.0089500733 0.96272272 0.021772748
0.014916149 0.32573086 -0.022467101 -0.44817692 0.010519787 0.89388293 0.023589747
-0.022693831 0.33609888 -0.022372982 0.44905338 0.028338594 0.89305544 0.018320933
-0.014397171 0.33345518 -0.025195962 0.21905047 -0.0055066147 0.97569799 0.012477128
-0.0052515212 0.3355222 -0.026465548 0.047614891 0.04002234 0.99806362 0.012629619
0.0044459454 0.3349869 -0.025855826 -0.12759635 0.015880104 0.9916991 0.015241076
0.014491767 0.33538339 -0.022734702 -0.45479634 0.014715135 0.8904739 0.022177139
-0.023446821 0.34500328 -0.022262834 0.43474424 0.0090665398 0.9005084 0.024776373
-0.014325552 0.34488994 -0.025532704 0.23449013 0.026856089 0.97174752 0.014018842
-0.005948164 0.3455399 -0.02676774 0.048190258 0.032893475 0.99829644 0.013074071
0.0061935303 0.34495091 -0.025743699 -0.21766706 0.032075547 0.97549587 0.01918726
0.015335721 0.34494817 -0.022707777 -0.44964758 0.029466268 0.89271992 0.020995604
-0.023623383 0.35433745 -0.022513069 0.52133739 0.014125989 0.85323375 0.026228992
-0.015001422 0.35482916 -0.025712239 0.27689686 0.047722094 0.95971388 0.010364835
-0.0034227823 0.35348621 -0.027022772 0.052197855 0.032080993 0.99812138 0.013292814
0.0049667708 0.35538554 -0.026330432 -0.19752568 0.049388092 0.97905278 0.014731118
0.015838353 0.35604316 -0.022917943 -0.48246476 0.067436002 0.87331563 0.015689161
0.020468287 0.35183883 -0.020221943 -0.62398213 0.018801412 0.78121245 0.034897286
-0.024881499 0.3660787 -0.022381729 0.58153033 0.070496224 0.81046456 0.025116285
-0.014975131 0.36427361 -0.026150992 0.26207399 0.047856469 0.96386039 0.0098895263
-0.0042933905 0.36454898 -0.027478481 0.015343537 0.045824036 0.99883169 0.014561806
0.005277025 0.36499807 -0.026797656 -0.24406432 0.057611857 0.96804619 0.014551128
0.015272706 0.36482003 -0.023599956 -0.48446447 0.03744255 0.87400925 0.017716728
-0.025201259 0.37522063 -0.022850029 0.5517416 0.024912156 0.83364296 0.020696439
-0.016214347 0.37516004 -0.026399476 0.29275489 0.049141157 0.95492393 0.012657085
-0.0047262325 0.37502754 -0.02802331 0.021827871 0.022610551 0.999506 0.012898951
0.0050999778 0.37554005 -0.027334519 -0.21153191 0.068942748 0.97493643 0.014150242
0.015355182 0.37535313 -0.024259822 -0.4827719 0.02426012 0.87541008 0.018539516
0.021999929 0.37327698 -0.020556645 -0.61976743 0.057049386 0.7827093 0.030860085
-0.030051136 0.38220879 -0.020575687 0.65171337 0.060354862 0.75606018 0.079156935
-0.02651847 0.38611022 -0.022676094 0.51818973 0.075603679 0.85191756 0.10442805
-0.014859441 0.38469753 -0.027235324 0.20451836 0.07543879 0.97595149 0.12754825
-0.0048154662 0.3854765 -0.028463135 -0.010027468 -0.12070628 -0.99263757 0.098957881
0.0052257767 0.38210493 -0.027722113 -0.2400015 0.03846987 0.97000998 0.056649599
0.014414526 0.38607258 -0.025135489 0.42581177 -0.13309827 -0.89496881 0.12114504
0.022072718 0.38413262 -0.021159925 -0.5750953 0.071118325 0.81498927 0.080189154
-0.030229598 0.39434901 -0.020743841 -0.63883322 -0.26039404 -0.72393858 0.13930234
-0.021811461 0.3955406 -0.025067916 -0.31027186 -0.30899101 -0.89903051 0.15889166
-0.015941685 0.39428401 -0.026959209 -0.23625484 -0.25592482 -0.93738264 0.16933106
-0.0037175249 0.39474392 -0.028591907 -0.021058924 -0.38218346 -0.92384648 0.17668495
0.0052300901 0.39461368 -0.027743312 0.13740914 -0.32145369 -0.93690252 0.17046663
0.01488957 0.39546087 -0.024875825 0.38413399 -0.38865244 -0.83749044 0.17730372
0.022375481 0.39435101 -0.02126863 0.60411084 -0.38742739 -0.6963836 0.17456557
-0.042943344 0.4078204 -0.023659142 -0.75815237 -0.32446593 -0.56562072 0.10186908
-0.033697013 0.40502578 -0.024753967 -0.66699916 -0.33382353 -0.66608858 0.12849058
-0.024728922 0.4042705 -0.024076339 -0.46220726 -0.45183858 -0.76302445 0.15714926
-0.01512522 0.4048121 -0.024611138 -0.12672314 -0.6666081 -0.73455763 0.19415669
-0.0046819169 0.40467787 -0.025311569 -0.017683564 -0.54939139 -0.83537805 0.17746307
0.0054544322 0.40446329 -0.024429398 0.1228665 -0.66004837 -0.74110717 0.19322658
0.014228427 0.40499157 -0.024562526 0.38831878 -0.4479889 -0.80530399 0.16991007
0.023820972 0.40585911 -0.023113325 0.63842416 -0.39637309 -0.65977496 0.15064067
0.034295194 0.40649703 -0.023440309 0.7977764 -0.35936105 -0.4841615 0.11898033
0.074216165 0.40917209 -0.021926126 -0.39585897 -0.82030267 -0.41279441 0.023316149
0.084058776 0.40922362 -0.022050509 -0.17828487 -0.87472558 -0.45063254 0.021979311
0.093325034 0.40956569 -0.022876352 -0.064247482 -0.88692915 -0.45741552 0.016342318
0.10189828 0.40877613 -0.020970128 0.025599327 -0.88226569 -0.47005519 0.012730139
0.11586519 0.40956494 -0.022874549 0.19517267 -0.86993808 -0.45289668 0.027315363
0.12126388 0.40869683 -0.02064595 0.40318888 -0.80927861 -0.42720816 0.05393808
-0.045140095 0.41318545 -0.023814391 -0.78479153 -0.37121013 -0.49629152 0.095711045
-0.031195194 0.41449818 -0.022812393 -0.61172253 -0.41251272 -0.67500281 0.15314563
-0.025695065 0.41477269 -0.024096377 -0.51618069 -0.3733651 -0.77081519 0.16035624
-0.015072804 0.41482145 -0.024096377 -0.17792951 -0.48790902 -0.85456765 0.18325996
-0.0050300844 0.41598922 -0.024096377 -0.066136681 -0.39197576 -0.91759521 0.19685638
0.0049325 0.41394022 -0.024096375 0.12139281 -0.59192699 -0.79679751 0.17573814
0.015147549 0.41553086 -0.024096381 0.46384406 -0.391689 -0.79462463 0.17028469
0.022732697 0.41432977 -0.023499882 0.6058808 -0.37763837 -0.70021266 0.1570438
0.037395768 0.41452134 -0.024821421 0.64780444 -0.41752693 -0.63719755 0.13956662
0.067575969 0.41863245 -0.022990769 -0.44928622 -0.7135545 -0.53757036 0.037682533
0.073595665 0.41312426 -0.026615495 -0.38354215 -0.74235123 -0.54937249 0.023312464
0.082772791 0.41119766 -0.025564626 -0.2000934 -0.82066602 -0.53522885 0.020582814
0.096838772 0.41229218 -0.026991045 -0.0019783564 -0.8056972 -0.59232438 0.011397727
0.10564835 0.4130899 -0.028030628 0.084469058 -0.78665113 -0.61159205 0.016978977
0.11496808 0.41167465 -0.026182279 0.18494558 -0.83536339 -0.51765168 0.028174214
0.12537947 0.41328835 -0.025404261 0.55952215 -0.68619931 -0.46482834 0.072429083
0.13077611 0.4164708 -0.022884686 0.73827201 -0.56342989 -0.37081167 0.064123124
-0.11160015 0.42747629 -0.021198561 -0.31992444 -0.73262584 -0.60075599 0.038581405
-0.10453852 0.42706373 -0.024237407 -0.15871273 -0.71325976 -0.68269372 0.041927963
-0.09490288 0.4269489 -0.023643704 0.071541816 -0.75027519 -0.65724343 0.031259343
-0.087079264 0.42956316 -0.020810306 0.21355525 -0.71220303 -0.66870093 0.035746824
-0.043302648 0.42672384 -0.023976658 -0.71180689 -0.26126966 -0.65197319 0.14978419
-0.034035396 0.42684555 -0.022612352 -0.72877443 -0.12883951 -0.67252368 0.13932143
-0.024680881 0.42487541 -0.024096377 -0.55540091 -0.23877034 -0.79656667 0.15519351
-0.013862954 0.42464817 -0.024096377 -0.16313311 -0.29381493 -0.94183874 0.17923346
-0.0051043271 0.4252035 -0.024096377 0.0053171306 -0.28108177 -0.95966905 0.17766146
0.0053429562 0.42532983 -0.024096377 0.12691334 -0.11766374 -0.98491025 0.18657121
0.014980261 0.42539123 -0.024096373 0.48768851 -0.13131295 -0.86308563 0.17046224
0.024428234 0.42601541 -0.022981513 0.70278507 -0.14967518 -0.69547862 0.15170331
0.035888147 0.42587197 -0.023743259 0.59155869 -0.30483681 -0.74641335 0.1832633
0.048999265 0.42978847 -0.020812694 -0.29262868 -0.55681235 -0.77738565 0.20617186
0.056273341 0.42820007 -0.022048494 -0.42572784 -0.61052942 -0.66783959 0.13614342
0.065408118 0.42357835 -0.025547225 -0.40907902 -0.63923019 -0.65118295 0.04782797
0.13228886 0.42437804 -0.024610821 0.83952546 -0.41941413 -0.34538224 0.061480742
-0.12061326 0.43792635 -0.022401502 -0.65074074 -0.39166585 -0.65048784 0.034865405
-0.11487397 0.43433705 -0.024883654 -0.47997093 -0.51097906 -0.7131117 0.040029492
-0.10679012 0.43310601 -0.028483918 -0.22144778 -0.54917252 -0.80583525 0.042021088
-0.093477495 0.43408149 -0.0282961 0.1374003 -0.52556038 -0.83958769 0.032576002
-0.084389791 0.43439955 -0.023475874 0.2561731 -0.6130954 -0.74732143 0.024272677
-0.075803205 0.43596852 -0.021451708 0.26288027 -0.55183071 -0.79143983 0.052519348
-0.06371627 0.43711826 -0.02107401 0.079997517 -0.42381969 -0.9022069 0.12025788
-0.053477768 0.43729132 -0.023015432 -0.2359492 -0.2259202 -0.94513917 0.17901331
-0.044795983 0.43414074 -0.024431279 -0.63888043 -0.14998686 -0.75454336 0.16429104
-0.033970706 0.43308413 -0.024644682 0.68907541 0.052528594 0.72278339 0.13593532
-0.025329959 0.43607998 -0.024096377 0.52134252 0.018445304 0.8531481 0.15832642
-0.016731622 0.43567187 -0.024096385 0.27472869 -0.070047222 0.95896685 0.15680782
-0.0040354826 0.43546057 -0.024096377 -0.016579768 -0.023040278 0.99959707 0.16358055
0.0056422339 0.43458083 -0.024096375 -0.1513662 -0.01583197 0.98835099 0.18207379
0.015687555 0.43481812 -0.024096375 -0.48794797 -0.0023806253 0.87286949 0.16830638
0.02283974 0.43521649 -0.023781715 -0.64007688 0.067153156 0.76537055 0.17469545
0.036165088 0.43502641 -0.026080569 0.47756743 -0.17295671 -0.86140311 0.19646178
0.044068929 0.43525219 -0.025128124 0.0011169873 -0.45779955 -0.88905472 0.22107057
0.055826347 0.43208846 -0.025189817 -0.43270728 -0.48290277 -0.76129442 0.092320263
0.060948584 0.43282863 -0.028777836 -0.48057631 -0.52483076 -0.70256603 0.049257737
0.13253011 0.43626279 -0.02407524 -0.94604164 0.163588 0.27972147 0.034790549
-0.12270476 0.44453853 -0.022935543 0.7466948 0.19684686 0.63537246 0.034481592
-0.11642456 0.4439899 -0.028407019 -0.55678308 -0.22164342 -0.80054158 0.038500756
-0.083502844 0.44534186 -0.028165797 0.24205102 -0.17775363 -0.95384222 0.03437946
-0.073549539 0.44612786 -0.025506763 0.24666649 -0.16354282 -0.95520133 0.055445209
-0.065091908 0.44548842 -0.024547352 0.067892343 -0.19141011 -0.9791593 0.097339146
-0.054724302 0.44445404 -0.025715139 -0.090246148 -0.19039659 -0.97755039 0.15266772
-0.044597864 0.44459924 -0.02593147 0.41954201 0.052696627 0.90620506 0.1706644
-0.031563472 0.44531265 -0.022346165 0.64676929 -0.018345442 0.76246506 0.18206745
-0.024853362 0.44439459 -0.024096375 0.45813361 -0.013461137 0.88878143 0.14717284
-0.015272358 0.4439159 -0.024096383 -0.19248803 -0.077189162 -0.97825873 0.15324758
-0.0057251998 0.44467616 -0.024096383 0.039438657 -0.0023990138 0.99921912 0.16273741
0.0054394105 0.44420648 -0.024096379 -0.15959629 -0.042239372 0.9862783 0.17821167
0.015121558 0.44469774 -0.024096375 -0.50207055 0.0065351808 0.864802 0.17380433
0.023436163 0.44395268 -0.023128524 -0.57170528 0.047478523 0.81908423 0.19001058
0.037517343 0.44429895 -0.025406156 -0.41858217 0.034890022 0.90750849 0.23762894
0.046583977 0.44453278 -0.029133068 -0.31922197 -0.21229078 -0.92359614 0.1687755
0.051033881 0.44421273 -0.029786216 -0.41099006 -0.2301573 -0.88210821 0.11949985
0.13253011 0.44452921 -0.023734717 -0.98856157 0.045434389 0.14381172 0.018440848
-0.12288819 0.45654592 -0.023340235 0.76448309 -0.14591138 0.62791359 0.03260779
-0.11725651 0.45655927 -0.028466258 0.59551919 -0.17311382 0.78446704 0.037666887
-0.083112121 0.4555037 -0.028369205 -0.2444381 -0.08662197 0.96578813 0.033761039
-0.075690247 0.45466045 -0.02638126 -0.26682422 -0.026513448 0.96338046 0.044271152
-0.065276936 0.45492575 -0.025368094 -0.14717762 -0.023963932 0.98881978 0.086445861
-0.056301508 0.45545354 -0.026130572 -0.015921088 -0.2010493 0.97945172 0.14535044
-0.044871904 0.45516109 -0.025682595 0.55393445 -0.02889978 0.83205855 0.15735364
-0.031928662 0.45482925 -0.021862414 0.58928055 -0.028223766 0.80743533 0.1675881
-0.025290104 0.45499593 -0.024096377 0.48622146 -0.0195802 0.87361628 0.13787502
-0.015976688 0.45536035 -0.024096375 0.26208299 0.00057456025 0.96504521 0.17321588
-0.0051890016 0.45487505 -0.024096375 0.067936294 0.051135402 0.99637836 0.16089876
0.0048780399 0.45513603 -0.024096379 -0.20510358 0.038002264 0.97800219 0.17093918
0.014768134 0.4553532 -0.024096375 0.48773476 -0.068904296 -0.87026829 0.17213835
0.02388072 0.45374334 -0.022657216 -0.63442445 0.020330219 0.77271748 0.18940119
0.03691389 0.4549095 -0.025430111 -0.39215785 0.0189288 0.91970319 0.2161833
0.046088681 0.45641118 -0.029700857 0.23494457 -0.16439056 0.95800668 0.19565928
0.13253011 0.45514804 -0.025289435 -0.97176051 -0.031043742 0.23391826 0.031697374
-0.12053871 0.46397823 -0.023542661 0.64089328 -0.37141424 0.671794 0.032327175
-0.11500585 0.46571183 -0.026765466 0.47889006 -0.42601657 0.76757687 0.041018877
-0.090946496 0.4687255 -0.027705416 -0.1574811 -0.52895629 0.83390951 0.031148346
-0.085431248 0.46521556 -0.026257684 -0.22719029 -0.49770206 0.83706468 0.02779139
-0.075084016 0.464719 -0.022972912 -0.26991868 -0.43295333 0.86005545 0.043631259
-0.065269321 0.46395627 -0.022514047 -0.089339979 -0.24435309 0.96556199 0.1133737
-0.054995917 0.4643603 -0.023392836 0.11344329 -0.3369621 0.93465883 0.17841527
-0.044722229 0.46503705 -0.026230104 0.49369723 -0.15647247 0.85544115 0.16348687
-0.032263752 0.46489042 -0.022680812 0.61085618 -0.080471672 0.78764135 0.15709722
-0.024749266 0.46616942 -0.024096379 0.44683209 -0.061635312 0.89249212 0.15517448
-0.015511463 0.46511692 -0.024096377 0.27437222 0.0070358426 0.96159786 0.15976876
-0.004051188 0.46492416 -0.024096377 -0.043133248 -0.058631651 -0.99734741 0.16196759
0.0044412003 0.46465749 -0.024096377 -0.13699317 0.0030285425 0.99056733 0.17858666
0.013968981 0.4641456 -0.024096383 -0.47939944 0.032731485 0.87698621 0.18867917
0.023804855 0.46588075 -0.022927146 -0.67321372 -0.020198245 0.73917204 0.17993362
0.036993243 0.46685076 -0.025249364 -0.6110543 -0.1307486 0.780716 0.21092373
0.045250461 0.46613187 -0.026374798 0.20736051 -0.18852195 0.95992762 0.24471647
0.053850744 0.46598023 -0.027984817 0.37239364 -0.34373146 0.86207402 0.13986005
0.13253011 0.46517831 -0.024977313 -0.9368099 -0.15673773 0.31276277 0.041246179
-0.11392268 0.47258803 -0.022975916 0.41453487 -0.62295645 0.66338992 0.047897883
-0.10535437 0.47535175 -0.025008641 0.12164161 -0.6911273 0.71242291 0.041529447
-0.095047452 0.47562841 -0.024944229 -0.066895664 -0.68093377 0.72928339 0.035162535
-0.086103067 0.47193062 -0.022227267 -0.24988486 -0.65087277 0.71688366 0.044805259
-0.078815848 0.47029173 -0.020225752 -0.23949668 -0.6766687 0.69624758 0.056642037
-0.050349161 0.4702962 -0.020970495 0.45285174 -0.37275177 0.80992675 0.20686351
-0.044233441 0.47467867 -0.024136299 0.69696504 -0.23520388 0.67743552 0.15038344
-0.033110149 0.47458228 -0.023666972 0.72035348 -0.065267801 0.69052947 0.12692891
-0.025843389 0.47541183 -0.024096375 0.5236463 -0.097938314 0.84628755 0.13280249
-0.015509203 0.47555801 -0.024096377 0.18030792 -0.073469684 0.98086244 0.14831322
-0.0053697447 0.47457707 -0.024096377 0.070972092 -0.091678485 0.99325627 0.14990236
0.0048208814 0.47511807 -0.024096375 -0.080177411 -0.10730367 0.99098814 0.15914395
0.015438984 0.47572571 -0.024096383 -0.50051355 -0.10539772 0.85928893 0.15892011
0.024221139 0.47599417 -0.023738751 -0.7069158 -0.11559689 0.69778746 0.14799142
0.036359295 0.47445917 -0.024775935 -0.66315323 -0.26175863 0.70122057 0.17436554
0.044650275 0.47187701 -0.022538539 0.010393236 -0.40583804 0.91388595 0.2360037
0.056808412 0.47506168 -0.022479096 0.37559876 -0.63159215 0.67824548 0.13567974
0.063101418 0.47614047 -0.026457524 0.44637734 -0.60992455 0.65478194 0.044821668
0.13235542 0.47546563 -0.024744451 -0.85984606 -0.33880022 0.38194126 0.062369227
-0.097526856 0.48112842 -0.020409226 -0.040873628 -0.83061087 0.55535114 0.036183409
-0.044273663 0.48310706 -0.025163472 0.69491476 -0.32534254 0.64128441 0.11606778
-0.031808339 0.4840661 -0.022203635 0.66293657 -0.29762384 0.68697536 0.14530493
-0.02556286 0.48488343 -0.024096375 0.52707201 -0.32992187 0.78316456 0.15711914
-0.015815502 0.48538968 -0.024096375 0.18692723 -0.44094041 0.87785524 0.17452967
-0.0048072287 0.48506004 -0.024096375 0.0068855621 -0.48286492 0.87566775 0.19265191
0.0032452662 0.48500857 -0.024096381 -0.085670345 -0.44858059 0.88962686 0.18889992
