# .PCD v0.7 - Point Cloud Data file format
VERSION 0.7
FIELDS x y z normal_x normal_y normal_z curvature
SIZE 4 4 4 4 4 4 4
TYPE F F F F F F F
COUNT 1 1 1 1 1 1 1
WIDTH 594
HEIGHT 1
VIEWPOINT 0 0 0 1 0 0 0
POINTS 594
DATA ascii
0.20449966 0.34621701 -0.080549531 1.1524695e-06 2.89693e-05 1 1.2137605e-05
0.21521617 0.34565526 -0.080549523 0.0034497094 0.01831755 0.99982625 0.0018498799
0.22296919 0.34352276 -0.080549531 -0.069584273 0.026076952 0.99723518 0.016364284
0.23478696 0.34425083 -0.080549538 -0.48103067 -0.028915277 0.87622678 0.079511739
0.24536707 0.34653178 -0.080549531 -0.74892503 0.021414066 0.66230863 0.087527767
-0.24459982 0.3542735 -0.080456316 0.74520755 -0.06180938 0.66396183 0.082873717
-0.23429765 0.35476637 -0.080549531 0.34702149 -0.059097387 0.93599343 0.090869702
-0.22537862 0.3570441 -0.080549531 0.15259361 0.019820763 0.98809022 0.032935716
-0.21395238 0.35327554 -0.080549523 -2.1936457e-05 6.2085317e-05 1 1.4664604e-05
-0.20582141 0.35685968 -0.080549531 -2.5345671e-05 5.8287096e-05 1 1.2628599e-05
-0.19298545 0.35530424 -0.080549531 -3.3891396e-05 6.6850116e-05 1 1.4115403e-05
-0.18423761 0.35283503 -0.080549531 -2.2262209e-05 4.8653073e-05 1 1.1722403e-05
-0.17586391 0.35610986 -0.080549538 -2.3999704e-05 4.1434364e-06 1 1.153613e-05
-0.16439883 0.35407823 -0.080549538 -2.029498e-05 1.7373959e-05 1 1.1263472e-05
-0.15707314 0.35361356 -0.080549531 -4.6222062e-06 5.7838737e-05 1 1.1177464e-05
-0.14441001 0.35399604 -0.080549523 -2.3727422e-05 3.6465983e-05 1 1.1202283e-05
-0.13431869 0.35517803 -0.080549531 -2.1797823e-05 7.8272184e-05 1 1.2207351e-05
-0.1236367 0.35410604 -0.080549531 -1.0381997e-05 1.8452869e-05 1 1.3410312e-05
-0.11456516 0.35559064 -0.080549531 -1.1299029e-05 4.8442063e-05 1 1.0032853e-05
-0.10617406 0.35477778 -0.080549531 -7.1075169e-06 3.6610527e-05 1 1.5899672e-05
-0.094030499 0.35492414 -0.080549531 -9.4532452e-06 1.0280252e-05 1 1.3084004e-05
-0.083279878 0.35381407 -0.080549531 -1.2593606e-05 6.085062e-05 1 1.5726599e-05
-0.074068941 0.35454956 -0.080549531 -4.1120556e-06 6.8950416e-05 1 1.2067977e-05
-0.064328142 0.35414988 -0.080549531 -5.0143194e-06 4.4142234e-05 1 1.53806e-05
-0.055507921 0.3553862 -0.080549538 -6.7116525e-06 1.6119911e-05 1 1.5327256e-05
-0.045496751 0.3564105 -0.080549531 -9.6908652e-06 5.4443735e-05 1 1.2701936e-05
-0.034811858 0.35612386 -0.080549531 -6.2687086e-06 4.3009106e-05 1 1.4961313e-05
-0.026080146 0.35544959 -0.080549531 -1.2127324e-06 3.8381833e-05 1 1.240233e-05
-0.016779702 0.35655984 -0.080549531 1.2251279e-06 6.8223075e-05 1 1.3356259e-05
-0.0050532147 0.35467488 -0.080549531 7.6514522e-07 4.903544e-05 1 1.4898211e-05
0.0046863756 0.35587618 -0.080549531 8.7264516e-06 5.2039839e-05 1 1.5605749e-05
0.01324651 0.35587919 -0.080549538 -1.3820535e-06 4.7168312e-05 1 1.5670843e-05
0.025996879 0.35549784 -0.080549531 1.9660379e-06 1.5830821e-05 1 1.2871632e-05
0.038293406 0.35696936 -0.080549538 1.0977307e-05 4.8984486e-05 1 1.4816124e-05
0.041885849 0.35609978 -0.080549538 1.9992183e-06 5.2116509e-05 1 1.5757505e-05
0.057188779 0.35787272 -0.080549531 1.4144756e-05 6.6501496e-05 1 1.4874802e-05
0.066231668 0.3535499 -0.080549531 9.2630489e-06 2.9524028e-05 1 1.5609283e-05
0.074130349 0.35578352 -0.080549531 1.1809915e-05 1.6781134e-05 1 1.3065031e-05
0.085987717 0.35395315 -0.080549538 1.2211621e-05 4.260445e-05 1 1.3502382e-05
0.094563618 0.35245112 -0.080549531 1.6633809e-05 3.3940927e-05 1 1.4427366e-05
0.1060074 0.35362446 -0.080549531 2.2862085e-05 6.387318e-05 1 1.4866289e-05
0.11560286 0.3555434 -0.080549531 3.0336807e-06 5.6092053e-05 1 1.3516402e-05
0.12511717 0.353131 -0.080549531 6.5149684e-06 3.0763265e-05 1 1.5922487e-05
0.1343492 0.35762784 -0.080549531 1.3659328e-05 4.6167861e-05 1 1.4307313e-05
0.1453124 0.35216543 -0.080549538 1.4275824e-05 5.9610764e-05 1 1.3371931e-05
0.15401407 0.35565975 -0.080549531 3.5559206e-05 6.2334104e-05 1 1.4533932e-05
0.16242263 0.35544807 -0.080549531 2.5035559e-05 5.8017478e-05 1 1.4518025e-05
0.17443715 0.35537964 -0.080549531 1.4010032e-05 2.8998549e-05 1 1.2849299e-05
0.18609431 0.35488677 -0.080549531 3.8894154e-06 4.1318679e-05 1 1.1711496e-05
0.19626804 0.35596976 -0.080549531 2.6982099e-05 5.5026281e-05 1 1.5736579e-05
0.20249152 0.35613817 -0.080549531 1.7923086e-05 2.528024e-05 1 1.2742054e-05
0.21553791 0.35485631 -0.080549538 2.9467603e-05 6.3722859e-05 1 1.535975e-05
0.22439028 0.35505429 -0.080549531 -0.1478408 0.0053368448 0.98899674 0.033110123
0.23427673 0.35580695 -0.080549538 -0.43199524 -0.031834003 0.9013139 0.083687857
0.24311814 0.35177585 -0.080549531 -0.59096336 -0.047916245 0.80527413 0.094642758
-0.24348974 0.36540973 -0.080480263 0.83704042 -0.036368415 0.54593104 0.084422037
-0.23710203 0.36400256 -0.080549531 0.59887594 -0.046741191 0.79947668 0.10560842
-0.22505209 0.3654778 -0.080549531 0.17047939 -0.019744214 0.98516339 0.035331145
-0.21321686 0.36588979 -0.080549531 -3.0918767e-07 2.9661393e-05 1 1.377731e-05
-0.20623051 0.36424884 -0.080549531 -2.8857137e-05 5.031289e-05 1 1.3905771e-05
-0.19194528 0.36535054 -0.080549531 -2.3932023e-05 4.7434864e-05 1 1.1136357e-05
-0.18397571 0.36640775 -0.080549531 -2.4001783e-05 6.3420193e-05 1 1.4802377e-05
-0.17660719 0.3675667 -0.080549531 -2.2913231e-05 3.7562095e-05 1 1.4629194e-05
-0.16510838 0.36460778 -0.080549531 1.0169853e-06 5.5545141e-05 1 1.3349619e-05
-0.15759152 0.36459595 -0.080549531 -1.6229436e-05 2.6557311e-05 1 1.5216642e-05
-0.14518763 0.3655428 -0.080549531 -1.4721666e-05 4.5979741e-05 1 1.2375678e-05
-0.13322856 0.3663418 -0.080549538 -1.2378604e-05 6.48118e-05 1 1.3509062e-05
-0.12642641 0.36597756 -0.080549531 -9.8892151e-06 1.7953886e-05 1 1.0248898e-05
-0.11417045 0.36695826 -0.080549531 -2.1313686e-05 2.0475025e-05 1 1.3167585e-05
-0.10612766 0.36410952 -0.080549538 -1.8848055e-05 5.8043315e-05 1 1.5901338e-05
-0.09546119 0.36567101 -0.080549531 -1.1893902e-05 2.1772599e-05 1 1.1779003e-05
-0.086110599 0.3651126 -0.080549531 -1.2020072e-06 4.6313813e-05 1 1.2975695e-05
-0.075987458 0.36551079 -0.080549531 -1.0432674e-05 3.3251374e-05 1 1.4853602e-05
-0.064063095 0.36594743 -0.080549538 -4.9844116e-06 3.5347974e-05 1 1.2829858e-05
-0.054301806 0.3628644 -0.080549531 -4.6178257e-06 3.5599696e-05 1 1.3628922e-05
-0.044443101 0.36462915 -0.080549531 -1.5395481e-05 5.4661017e-05 1 1.320628e-05
-0.035471018 0.36611137 -0.080549531 -4.4418816e-06 3.1263593e-05 1 1.3416397e-05
-0.023886399 0.36300263 -0.080549531 -2.0753289e-06 5.0428447e-05 1 1.5550429e-05
-0.013616276 0.36724043 -0.080549531 6.4057645e-06 4.8395024e-05 1 1.5279966e-05
-0.0059377677 0.36502337 -0.080549531 2.8408613e-06 3.7114329e-05 1 1.3538778e-05
0.0039734887 0.3638173 -0.080549531 5.6886147e-06 5.8208541e-05 1 1.5882697e-05
0.016012346 0.36385795 -0.080549531 4.5984725e-06 4.2924035e-05 1 1.5037766e-05
0.024720078 0.36458266 -0.080549531 1.0271375e-06 3.5240006e-05 1 1.3208317e-05
0.03509647 0.36544999 -0.080549538 6.4644469e-06 5.9365717e-05 1 1.3751875e-05
0.044311929 0.36364397 -0.080549531 5.6140043e-06 3.2601183e-05 1 1.5643394e-05
0.053444576 0.36537397 -0.080549531 1.1189466e-06 5.2154199e-05 1 1.5109548e-05
0.06596943 0.36565623 -0.080549531 8.4005505e-06 4.6866942e-05 1 1.3059854e-05
0.075267106 0.36404499 -0.080549531 1.0801601e-05 3.4205095e-05 1 1.2734855e-05
0.083077781 0.36480731 -0.080549531 9.5602616e-07 2.4714014e-05 1 1.1757953e-05
0.094475552 0.36489472 -0.080549531 6.083033e-06 4.3248059e-05 1 1.3637704e-05
0.10404394 0.36538801 -0.080549538 1.8975803e-05 4.8358084e-05 1 1.3597239e-05
0.11486448 0.36569762 -0.080549531 1.3235005e-05 3.7225091e-05 1 1.1540913e-05
0.12438557 0.36607888 -0.080549523 1.1414884e-05 3.8011854e-05 1 1.1756046e-05
0.13450417 0.36440414 -0.080549531 1.4894903e-05 3.5137982e-05 1 1.304164e-05
0.1437314 0.36478338 -0.080549538 1.733783e-05 7.6819197e-05 1 1.5603793e-05
0.15647894 0.36492461 -0.080549531 7.513218e-06 5.7444082e-05 1 1.0014658e-05
0.16470739 0.36556593 -0.080549531 1.8122431e-05 4.9934908e-05 1 1.1667841e-05
0.17336617 0.36383247 -0.080549531 2.5920095e-05 3.9367118e-05 1 1.5468955e-05
0.18512779 0.36358202 -0.080549531 2.8077682e-05 4.8270369e-05 1 1.4461964e-05
0.19493942 0.36706042 -0.080549531 4.4470045e-05 3.7758506e-05 1 1.2128466e-05
0.20494442 0.36472613 -0.080549523 4.8388247e-05 3.3245193e-05 1 1.2890573e-05
0.21590956 0.3648051 -0.080549523 3.4072691e-05 5.6070137e-05 1 1.3427642e-05
0.22450644 0.36471927 -0.080549531 -0.1461858 0.0090681463 0.98921555 0.029654613
0.23578882 0.36531979 -0.080549531 -0.47803923 0.0077759512 0.87830406 0.084989525
0.24328065 0.363107 -0.080549538 -0.56631964 -0.063352443 0.82174724 0.08346457
-0.24249631 0.3741132 -0.08045768 0.69067907 -0.086420864 0.71797907 0.11994217
-0.23612772 0.37472537 -0.080549531 0.5417493 -0.057973944 0.83853847 0.12729263
-0.22562474 0.37548396 -0.080549531 0.19107828 -0.042432208 0.98065722 0.042180955
-0.2148633 0.37459135 -0.080549538 0.017505333 -0.00020617833 0.9998467 0.0016594338
-0.20830958 0.37625191 -0.080549531 -8.7401886e-06 2.0368439e-05 1 1.3162278e-05
-0.19567369 0.37720525 -0.080549523 -7.3073452e-06 5.1830451e-05 1 1.1405398e-05
-0.18563068 0.37626147 -0.080549531 -3.1271695e-05 5.5148852e-05 1 1.5134739e-05
-0.17537984 0.37442279 -0.080549531 -3.7758111e-06 4.148528e-05 1 1.2747251e-05
-0.16623572 0.37568951 -0.080549523 -3.0710045e-05 6.7114124e-05 1 1.0828611e-05
-0.15282485 0.37804905 -0.080549523 -1.8501883e-05 5.2673957e-05 1 1.3443486e-05
-0.14583853 0.37526834 -0.080549531 -3.0752759e-05 5.3249558e-05 1 1.0206276e-05
-0.13513228 0.37601033 -0.080549531 -1.5045212e-05 5.139842e-05 1 1.271907e-05
-0.12500377 0.37770385 -0.080549531 -6.1577462e-06 2.375345e-05 1 1.1805629e-05
-0.11328508 0.37509692 -0.080549531 -1.2333074e-05 6.5514781e-05 1 1.6021022e-05
-0.10462537 0.37418491 -0.080549538 -1.4711165e-05 4.0216477e-05 1 1.2733072e-05
-0.093393289 0.37373862 -0.080549538 -1.8593753e-05 3.7219659e-05 1 1.3660369e-05
-0.084081136 0.3764205 -0.080549531 -7.2425087e-06 6.9265436e-05 1 1.5159314e-05
-0.07289616 0.37438735 -0.080549538 -1.0149978e-05 8.241117e-06 1 1.2896668e-05
-0.06640029 0.37493959 -0.080549531 2.1908347e-06 3.1185264e-05 1 1.2743714e-05
-0.054460794 0.37617022 -0.080549531 -7.7373707e-06 5.6442248e-05 1 1.5823567e-05
-0.046041787 0.37612224 -0.080549531 -6.0689254e-06 4.1257044e-05 1 1.4719857e-05
-0.035272479 0.3762559 -0.080549531 -1.9646604e-06 5.742499e-05 1 1.5622683e-05
-0.023185328 0.37606019 -0.080549531 -7.8196535e-07 4.5341734e-05 1 1.5040987e-05
-0.014597046 0.37592611 -0.080549531 -4.1571402e-06 3.9388076e-05 1 1.3125438e-05
-0.0040817857 0.37322211 -0.080549538 1.2307208e-06 4.6101992e-05 1 1.5854388e-05
0.0061760326 0.37542784 -0.080549531 -7.9168473e-07 5.6065921e-05 1 1.5226335e-05
0.015575914 0.37608787 -0.080549531 -2.930912e-07 6.3580876e-05 1 1.5578598e-05
0.024211651 0.37664777 -0.080549531 5.8156934e-06 4.1789288e-05 1 1.5314847e-05
0.034114819 0.37388405 -0.080549531 7.4126633e-06 5.7767302e-05 1 1.629826e-05
0.046735413 0.37796611 -0.080549538 6.1567061e-06 6.9109054e-05 1 1.6081316e-05
0.054491837 0.37594071 -0.080549531 8.3142195e-06 6.0528819e-05 1 1.3093048e-05
0.065365359 0.37567574 -0.080549531 1.2260096e-05 8.9193709e-06 1 1.3473862e-05
0.075634778 0.3753902 -0.080549531 1.0043704e-05 2.3406154e-05 1 1.2536239e-05
0.086275004 0.37334564 -0.080549531 7.3527067e-06 2.3543698e-05 1 1.4816871e-05
0.099967033 0.37960735 -0.080549531 5.6484478e-06 3.9139548e-05 1 1.3972124e-05
0.10574152 0.37875527 -0.080549523 7.4542372e-06 3.8722159e-05 1 1.180044e-05
0.11518381 0.37563384 -0.080549531 1.8438568e-05 3.2312011e-05 1 1.2318979e-05
0.1254632 0.37425351 -0.080549538 9.8641394e-06 2.9725445e-05 1 1.2897268e-05
0.13611054 0.3740252 -0.080549531 9.8024293e-06 6.1389597e-05 1 1.2723699e-05
0.14416896 0.37411982 -0.080549531 1.3974908e-05 3.2132059e-05 1 1.2049574e-05
0.15757079 0.3760654 -0.080549538 1.7627573e-05 2.2164477e-05 1 1.4797475e-05
0.1644977 0.37704593 -0.080549531 3.0985022e-05 3.0559295e-05 1 1.2793378e-05
0.17749494 0.37372309 -0.080549531 -2.775826e-06 7.6164659e-05 1 1.428282e-05
0.18515496 0.37464961 -0.080549531 1.3259997e-05 6.607853e-05 1 1.5149666e-05
0.19519056 0.37583861 -0.080549531 4.4871918e-05 3.1453746e-05 1 1.488189e-05
0.20447518 0.37518191 -0.080549531 3.8322025e-05 3.7153626e-05 1 1.4669159e-05
0.21508017 0.37509337 -0.080549531 4.9995462e-05 3.3732897e-05 1 1.3450443e-05
0.22478764 0.37697676 -0.080549531 -0.14024898 0.0097235125 0.99006855 0.024911705
0.23544146 0.37680349 -0.080549531 -0.47959703 0.018202027 0.87730002 0.078141786
0.24311388 0.37357691 -0.080549523 -0.57253265 -0.05867064 0.8177799 0.090205289
-0.24005437 0.38052523 -0.080549531 0.68145573 -0.046455581 0.73038334 0.095105708
-0.23514897 0.38511837 -0.080549531 0.39719775 -0.042309135 0.91675729 0.079406336
-0.22547103 0.38459402 -0.080549531 0.16189982 -0.00091061863 0.98680681 0.032710288
-0.21473119 0.38503018 -0.080549531 0.028895792 -0.0030232328 0.99957782 0.0039781663
-0.20318672 0.38422218 -0.080549531 -2.7987217e-05 7.1133589e-05 1 1.121433e-05
-0.19595057 0.38403445 -0.080549523 -2.8015847e-05 3.072344e-05 1 1.5110283e-05
-0.18462178 0.3845976 -0.080549531 -4.4081826e-05 6.4707529e-05 1 1.5914213e-05
-0.17673099 0.38508749 -0.080549531 -3.6123602e-05 3.0348701e-05 1 1.2353912e-05
-0.16526583 0.3834736 -0.080549531 -1.6651933e-05 3.1351752e-05 1 1.0833974e-05
-0.15520877 0.38412014 -0.080549531 -2.2686112e-05 2.3751181e-05 1 1.1598382e-05
-0.14368241 0.38574767 -0.080549531 -8.4391731e-06 7.7255863e-05 1 1.1727773e-05
-0.13524716 0.3844009 -0.080549538 -2.2852362e-06 4.5800396e-05 1 1.3265538e-05
-0.12383414 0.3842721 -0.080549538 -1.3319488e-05 4.6708774e-05 1 1.1773088e-05
-0.11477776 0.38578695 -0.080549531 -1.6673253e-05 3.7003359e-05 1 1.6146791e-05
-0.10548807 0.38483563 -0.080549531 -1.7260092e-05 7.1311035e-05 1 1.3410575e-05
-0.095428042 0.38497555 -0.080549531 -1.1556749e-05 1.7698752e-05 1 1.3468288e-05
-0.087822244 0.38817182 -0.080549538 -1.0696772e-05 5.3253545e-05 1 1.6280814e-05
-0.0765322 0.38460004 -0.080549531 -1.2646518e-05 4.4455093e-05 1 1.3114294e-05
-0.065330878 0.38637868 -0.080549531 -1.0469253e-05 5.6771874e-05 1 1.2447787e-05
-0.056655694 0.38481122 -0.080549531 -6.1681217e-06 8.0553276e-05 1 1.5945781e-05
-0.045031503 0.38635772 -0.080549531 -1.2905035e-05 2.3514298e-05 1 1.2989163e-05
-0.036106557 0.38498721 -0.080549531 8.7277732e-07 5.0140054e-05 1 1.2927044e-05
-0.025796162 0.3860192 -0.080549531 -8.6049823e-07 3.9714872e-05 1 1.3195066e-05
-0.015082865 0.38407335 -0.080549531 7.0345584e-07 5.1201234e-05 1 1.3609922e-05
-0.0042723222 0.38431036 -0.080549531 -3.6377635e-08 4.4028006e-05 1 1.5802703e-05
0.0052511711 0.38429675 -0.080549538 1.4081253e-06 3.3311e-05 1 1.5480247e-05
0.015501146 0.38685459 -0.080549531 6.6890739e-06 4.4123797e-05 1 1.1798141e-05
0.026908528 0.38464358 -0.080549531 7.6505985e-06 4.7595309e-05 1 1.4512164e-05
0.032989483 0.38308245 -0.080549531 6.6950038e-06 3.2785218e-05 1 1.5954525e-05
0.046466965 0.38521665 -0.080549531 2.1900639e-06 6.2690277e-05 1 1.5328556e-05
0.054540854 0.38386369 -0.080549538 5.8768469e-06 2.8776867e-05 1 1.3182653e-05
0.065640643 0.38453791 -0.080549531 1.2095983e-05 6.4578126e-05 1 1.5188904e-05
0.074512683 0.38587457 -0.080549538 9.6795065e-06 4.8738548e-05 1 1.4804817e-05
0.082279049 0.38424367 -0.080549531 1.0677411e-05 6.5741304e-05 1 1.1858362e-05
0.095116571 0.38594356 -0.080549531 9.0964731e-06 3.5780347e-05 1 1.5450536e-05
0.10527274 0.38528943 -0.080549538 1.329342e-05 5.7624737e-05 1 1.0368116e-05
0.11437502 0.38594994 -0.080549531 1.9195284e-05 7.2609269e-05 1 1.299911e-05
0.12509999 0.38553116 -0.080549531 1.3424446e-05 5.4546435e-05 1 1.382238e-05
0.13439351 0.38437468 -0.080549531 1.8813287e-05 8.0378202e-05 1 1.304048e-05
0.14365318 0.38511068 -0.080549523 1.9180479e-05 4.3774253e-05 1 1.1674556e-05
0.15570104 0.38376638 -0.080549531 2.3082905e-05 4.3372853e-05 1 1.4048002e-05
0.16659139 0.38623583 -0.080549531 2.3187698e-05 7.3043695e-05 1 1.0242799e-05
0.17335722 0.38700038 -0.080549523 2.8245702e-05 5.4024484e-05 1 1.2486536e-05
0.18453148 0.38517669 -0.080549538 9.7214697e-06 6.5866843e-05 1 1.2883124e-05
0.1953955 0.3857356 -0.080549531 1.9260011e-05 3.9627601e-05 1 1.3306715e-05
0.20518774 0.38350976 -0.080549538 2.1508173e-05 3.1204174e-05 1 1.4516866e-05
0.21437502 0.38346997 -0.080549538 3.328293e-05 5.6143297e-05 1 1.6067666e-05
0.22435358 0.38492253 -0.080549538 -0.16811922 -0.025988532 0.98542398 0.032233544
0.23363292 0.38582405 -0.080549531 -0.29515421 -0.006583944 0.95542699 0.061646957
0.2445029 0.384799 -0.080549531 -0.72229928 -0.010512975 0.69150072 0.080325127
-0.242688 0.39163846 -0.080371015 0.76831341 -0.06806846 0.63644415 0.082253195
-0.23594375 0.39645341 -0.080549531 0.523009 -0.0090534445 0.85227901 0.10390727
-0.2245343 0.39487773 -0.080549531 0.18102038 -0.015282477 0.98336065 0.037877642
-0.21292616 0.39546156 -0.080549531 -3.3900371e-05 4.5903475e-05 1 1.3231999e-05
-0.20668732 0.39445934 -0.080549531 -2.4840847e-05 3.422454e-05 1 1.4683098e-05
-0.19247915 0.39241388 -0.080549531 -1.5117052e-05 6.4343178e-05 1 1.4410617e-05
-0.18491648 0.39480066 -0.080549531 -2.2536075e-05 5.394773e-05 1 1.2281035e-05
-0.1741381 0.394907 -0.080549531 -3.2709486e-05 3.8125447e-05 1 9.9570889e-06
-0.16566418 0.39554152 -0.080549531 -5.4113743e-06 4.107528e-05 1 1.3092092e-05
-0.15346567 0.3949284 -0.080549531 -7.4113304e-06 6.1319151e-05 1 1.1668119e-05
-0.14650229 0.3971861 -0.080549531 -1.6028966e-05 4.846591e-05 1 1.4562418e-05
-0.13606104 0.39519256 -0.080549531 -1.4604832e-05 3.8098246e-05 1 1.2276394e-05
-0.1241554 0.39426035 -0.080549523 -1.1634248e-05 3.0955573e-05 1 1.4808805e-05
-0.11436379 0.39575264 -0.080549531 -1.5221556e-05 6.330527e-05 1 1.5468933e-05
-0.10385934 0.39528584 -0.080549538 -5.3970789e-06 6.5478933e-05 1 1.5754413e-05
-0.096122012 0.39381769 -0.080549531 -3.0796646e-06 3.8018658e-05 1 1.2472029e-05
-0.084152155 0.39433259 -0.080549531 -1.084657e-05 5.073678e-05 1 1.4257959e-05
-0.075196102 0.39518106 -0.080549531 -1.5331714e-05 3.5021316e-05 1 1.312334e-05
-0.065016143 0.39531168 -0.080549531 -1.2513727e-05 6.3166895e-05 1 1.2167004e-05
-0.056746665 0.39581886 -0.080549531 -9.1464854e-06 4.9751765e-05 1 1.507852e-05
-0.044020101 0.39581099 -0.080549538 -3.649011e-06 3.5172689e-05 1 1.23153e-05
-0.034979563 0.39647782 -0.080549538 -1.8757486e-06 9.3262825e-05 1 1.5766973e-05
-0.023857569 0.39264643 -0.080549531 -4.8771362e-06 3.0614552e-05 1 1.5417863e-05
-0.01513241 0.39431697 -0.080549538 -6.9565084e-07 3.5989236e-05 1 1.324538e-05
-0.0048112706 0.3954052 -0.080549531 -1.7712853e-06 4.8022386e-05 1 1.571177e-05
0.0045037773 0.3955695 -0.080549531 1.7636866e-06 3.5403988e-05 1 1.1929054e-05
0.016956953 0.39489689 -0.080549531 6.2921476e-06 5.5888311e-05 1 1.3569268e-05
0.024735829 0.39471602 -0.080549531 2.8375682e-06 2.1006252e-05 1 1.2941748e-05
0.036054235 0.39488909 -0.080549531 1.3062931e-06 5.0655221e-05 1 1.3517485e-05
0.044988003 0.39494392 -0.080549531 4.2393235e-06 6.208488e-05 1 1.2062608e-05
0.051382117 0.39428478 -0.080549538 5.1138686e-06 3.8233284e-05 1 1.3271099e-05
0.066206001 0.39508069 -0.080549531 1.1503336e-05 6.5913533e-05 1 1.3730908e-05
0.073567934 0.39686522 -0.080549531 2.5824788e-06 3.4355995e-05 1 1.465398e-05
0.083883569 0.39585251 -0.080549531 1.7186343e-05 4.1743679e-05 1 1.2362839e-05
0.096691646 0.39297438 -0.080549531 1.2247356e-05 3.4455388e-05 1 1.5908467e-05
0.10322712 0.39535612 -0.080549531 1.641448e-05 6.9582471e-05 1 1.4984952e-05
0.11517954 0.39718327 -0.080549531 2.2460816e-05 0.00010917845 1 1.3857496e-05
0.12462409 0.39704815 -0.080549531 1.3026481e-05 5.0525741e-05 1 1.4998163e-05
0.13599382 0.39516923 -0.080549531 4.6821251e-06 4.651953e-05 1 1.2992507e-05
0.14166416 0.39523739 -0.080549531 1.7893793e-05 9.7940872e-05 1 1.4693276e-05
0.1547308 0.39729524 -0.080549538 1.2527395e-05 5.0553688e-05 1 1.2195245e-05
0.16655423 0.3950243 -0.080549531 2.7759066e-05 1.7654116e-05 1 1.0714753e-05
0.17660183 0.39444146 -0.080549531 1.5556383e-05 5.4993317e-05 1 1.0953572e-05
0.1860906 0.39559507 -0.080549531 1.8268445e-05 9.181624e-05 1 1.5924734e-05
0.19557218 0.39626262 -0.080549531 2.8239778e-05 4.7870675e-05 1 1.48215e-05
0.20653224 0.39413619 -0.080549531 2.0413456e-05 7.0206697e-05 1 1.4140672e-05
0.21295902 0.39437026 -0.080549531 3.0888656e-05 5.3506021e-05 1 1.5191862e-05
0.225594 0.39419323 -0.080549523 -0.16442491 0.0020454233 0.98638743 0.029629171
0.23414874 0.39409795 -0.080549531 -0.31979272 0.020754818 0.9472602 0.067881495
0.24477077 0.39531088 -0.080492139 -0.75962514 0.018735247 0.65009117 0.082146987
-0.24033338 0.40795177 -0.080549538 0.70869541 0.016999437 0.70530969 0.087031335
-0.23498742 0.40653357 -0.080549531 0.5493539 0.041111592 0.8345778 0.089378834
-0.225912 0.40381631 -0.080549531 0.30030921 -0.039398607 0.9530279 0.062615924
-0.21578942 0.40534884 -0.080549531 0.045005683 0.0032273782 0.99898154 0.0040564095
-0.2038963 0.40301955 -0.080549531 -3.6388556e-05 3.5409215e-05 1 1.2236132e-05
-0.19448011 0.40399519 -0.080549531 -2.1484133e-05 7.1051458e-05 1 1.2267016e-05
-0.18502662 0.40556231 -0.080549523 -3.0078736e-05 3.1781343e-05 1 1.3452177e-05
-0.17531663 0.40718696 -0.080549531 -1.9365752e-05 6.537122e-05 1 1.5924497e-05
-0.16472566 0.40451369 -0.080549531 -2.476105e-05 4.6251644e-05 1 1.2451253e-05
-0.15368052 0.40493596 -0.080549531 -2.392482e-05 4.6387802e-05 1 1.4541239e-05
-0.14593633 0.40646759 -0.080549538 -1.3827804e-05 4.7288981e-05 1 1.210675e-05
-0.13411422 0.40305343 -0.080549531 -1.4225777e-05 4.9884045e-05 1 1.2751976e-05
-0.12107075 0.40709066 -0.080549531 -2.6733176e-06 4.3014978e-05 1 1.5200155e-05
-0.11124948 0.40471008 -0.080549538 -8.1750677e-06 9.670596e-05 1 1.6338685e-05
-0.10493418 0.40499425 -0.080549531 -2.1106005e-05 3.4384197e-05 1 1.6621283e-05
-0.09574084 0.40650684 -0.080549538 -1.2426264e-05 7.3694377e-05 1 1.377206e-05
-0.08592061 0.40454334 -0.080549531 -1.8854236e-05 5.7097503e-05 1 1.2757888e-05
-0.074162222 0.40338057 -0.080549531 -1.5876376e-05 4.6779463e-05 1 1.5934202e-05
-0.063015372 0.406598 -0.080549531 -5.9205167e-06 6.7622197e-05 1 1.4851308e-05
-0.054904044 0.40279469 -0.080549531 -8.8232009e-06 6.6271794e-05 1 1.6164759e-05
-0.044766109 0.40251413 -0.080549538 -3.1991135e-06 4.8975715e-05 1 1.5484249e-05
-0.03597226 0.40387154 -0.080549531 -4.3391187e-06 5.1724171e-05 1 1.574911e-05
-0.025486846 0.40566409 -0.080549531 -9.045425e-06 5.6786092e-05 1 1.2952941e-05
-0.013597378 0.40492976 -0.080549531 3.5879866e-06 7.0324117e-05 1 1.3515734e-05
-0.0063114436 0.40367764 -0.080549531 -8.5070788e-08 6.6283086e-05 1 1.5141036e-05
0.0036105891 0.4050279 -0.080549531 4.718991e-06 5.0841838e-05 1 1.2926131e-05
0.01355992 0.40469137 -0.080549531 1.7191833e-06 2.0554243e-07 1 1.3084592e-05
0.02428508 0.40387431 -0.080549531 5.9847644e-06 4.9622849e-05 1 1.071241e-05
0.035455979 0.40576392 -0.080549531 6.2585773e-06 6.3535015e-05 1 1.4251847e-05
0.047299255 0.40517634 -0.080549531 2.6191883e-06 7.0531722e-05 1 1.5245088e-05
0.056000113 0.40595222 -0.080549531 1.0291166e-05 4.5388442e-05 1 1.4411108e-05
0.064525813 0.40450209 -0.080549538 8.7946901e-06 4.5299152e-05 1 1.5917001e-05
0.076305948 0.40758711 -0.080549538 7.0312644e-06 1.7896202e-05 1 1.1543136e-05
0.084683925 0.40384728 -0.080549531 1.556184e-05 6.5147353e-05 1 1.5554309e-05
0.096338496 0.40292558 -0.080549531 1.3562589e-05 7.2111048e-05 1 1.2867101e-05
0.10468132 0.40498632 -0.080549523 1.8920127e-05 6.2440311e-05 1 1.2749705e-05
0.11499404 0.40583834 -0.080549531 1.5175326e-05 5.9911588e-05 1 1.2807023e-05
0.12588616 0.40402767 -0.080549538 1.4816314e-05 8.4086991e-05 1 1.3842964e-05
0.13773282 0.40430295 -0.080549531 1.9793268e-05 4.1427127e-05 1 1.1889521e-05
0.14459848 0.40355006 -0.080549523 1.2734633e-05 8.2112645e-05 1 1.3460088e-05
0.15603152 0.40504301 -0.080549531 2.3185465e-05 8.3529012e-05 1 1.2378368e-05
0.16513377 0.40456444 -0.080549538 1.4889058e-05 8.2136496e-05 1 1.4987898e-05
0.17381567 0.4043394 -0.080549531 1.4974487e-05 3.8761638e-05 1 1.0182069e-05
0.18422613 0.40466341 -0.080549531 1.530798e-05 1.9672032e-05 1 1.345585e-05
0.19719186 0.40335503 -0.080549531 1.8805109e-05 6.5708693e-05 1 1.2024311e-05
0.20482799 0.40520641 -0.080549531 2.4889014e-05 5.021178e-05 1 1.1800536e-05
0.21451081 0.40494654 -0.080549531 4.0390278e-05 2.8824314e-05 1 1.5450532e-05
0.2263315 0.40381461 -0.080549531 -0.1596574 -0.014850603 0.98706073 0.033766761
0.23402923 0.40524033 -0.080549531 -0.36051655 -0.0062466278 0.93273187 0.066470258
0.24514315 0.40673408 -0.080496632 -0.70648813 -0.0068233241 0.70769197 0.078232408
-0.2417011 0.41474584 -0.080314733 0.65066224 -0.01769408 0.75916106 0.091399699
-0.23389477 0.41475481 -0.080549531 0.45576024 -0.025487041 0.88973761 0.09176176
-0.22596434 0.41345739 -0.080549538 0.25468153 -0.031888109 0.96649915 0.056510571
-0.21499808 0.41441837 -0.080549531 0.042996708 -0.0019325452 0.99907339 0.0035829188
-0.20573184 0.41669458 -0.080549531 -1.3361828e-05 4.7584483e-05 1 1.2378046e-05
-0.19527726 0.4136911 -0.080549531 -2.7323958e-05 4.8853428e-05 1 9.8265518e-06
-0.18140943 0.41440842 -0.080549531 -2.169254e-05 3.067443e-05 1 1.542664e-05
-0.17417178 0.41616258 -0.080549531 -1.6522536e-05 7.633763e-05 1 1.4652776e-05
-0.16445795 0.41417399 -0.080549538 -1.9444493e-05 6.2240608e-05 1 1.3510091e-05
-0.15714362 0.41575882 -0.080549531 -1.5181497e-05 5.4016866e-05 1 1.4674894e-05
-0.14250408 0.41366515 -0.080549531 -1.5896307e-05 5.5273489e-05 1 1.2292528e-05
-0.13633598 0.41585243 -0.080549531 -2.3101964e-06 5.2774667e-05 1 1.1684939e-05
-0.12564197 0.41485205 -0.080549531 -2.0457903e-05 5.9183261e-05 1 1.3307498e-05
-0.11681364 0.41398096 -0.080549531 -1.6615952e-05 3.3979792e-05 1 1.585167e-05
-0.10611699 0.4170824 -0.080549531 -1.9358178e-05 4.5794288e-05 1 1.229942e-05
-0.095054552 0.41401118 -0.080549531 -9.4101606e-06 6.7586625e-05 1 1.3534449e-05
-0.084807657 0.41527537 -0.080549538 -1.0276273e-05 8.3724386e-05 1 1.4549939e-05
-0.075005122 0.41575244 -0.080549538 -7.1519503e-06 -5.0243227e-07 1 1.3351661e-05
-0.064062968 0.41450697 -0.080549523 -1.2723413e-05 3.4745201e-05 1 1.194706e-05
-0.056240603 0.41537675 -0.080549531 -3.0892779e-06 3.684538e-05 1 1.2006235e-05
-0.044745605 0.41405678 -0.080549531 -4.8788224e-06 0.00010955768 1 1.56681e-05
-0.033344321 0.41372281 -0.080549538 -7.5493363e-06 6.2901156e-05 1 1.5163897e-05
-0.02472423 0.41420466 -0.080549538 -2.7958445e-06 4.7781774e-05 1 1.5237448e-05
-0.015554345 0.41628909 -0.080549531 -3.4426409e-06 4.7352973e-05 1 1.5856574e-05
-0.0052311961 0.41396511 -0.080549531 -8.6689954e-07 6.6509252e-05 1 1.2794855e-05
0.0041104709 0.4145599 -0.080549531 3.0255001e-06 5.2459847e-05 1 1.2818993e-05
0.015703313 0.41588601 -0.080549538 3.2068507e-07 4.545668e-05 1 1.1659011e-05
0.025214221 0.4141427 -0.080549523 9.2056149e-07 3.3545883e-05 1 1.2633118e-05
0.035673611 0.4143737 -0.080549531 4.202026e-06 7.5878095e-05 1 1.2301255e-05
0.046615172 0.4150075 -0.080549531 5.3302138e-06 4.6860536e-05 1 1.3010686e-05
0.056016039 0.41654626 -0.080549531 1.8804532e-06 4.9058246e-05 1 1.3440913e-05
0.063486837 0.41351053 -0.080549531 1.4401593e-05 7.0876042e-05 1 1.2990036e-05
0.074250504 0.41569233 -0.080549538 1.0823064e-05 4.9178274e-05 1 1.3017041e-05
0.084601194 0.41615903 -0.080549531 1.0149942e-05 4.858126e-05 1 1.5030184e-05
0.092988029 0.41472432 -0.080549531 1.3041724e-05 5.2630647e-05 1 1.435005e-05
0.10514861 0.41481581 -0.080549531 1.3740831e-05 6.4652893e-05 1 1.542583e-05
0.11431203 0.41510382 -0.080549531 2.0111829e-05 4.4143188e-05 1 1.5017598e-05
0.1241037 0.41450474 -0.080549531 1.7313569e-05 5.4481297e-05 1 1.212247e-05
0.13413496 0.41412672 -0.080549531 2.0109277e-05 8.8585119e-05 1 1.5324358e-05
0.14552741 0.41485938 -0.080549538 2.3061217e-05 8.1524769e-05 1 1.3238757e-05
0.15364403 0.41331646 -0.080549531 1.6995689e-05 1.7025173e-05 1 1.4675395e-05
0.16529378 0.41623026 -0.080549531 4.0904004e-05 5.6549492e-05 1 1.1725509e-05
0.17459075 0.4168843 -0.080549531 2.3788307e-05 9.4185554e-05 1 1.2455597e-05
0.18371615 0.41362095 -0.080549531 2.4466275e-05 4.8276557e-05 1 9.8378669e-06
0.19583257 0.41371822 -0.080549531 1.9024681e-05 3.6734429e-05 1 1.2141522e-05
0.20479117 0.41404861 -0.080549531 2.6023163e-05 4.8670605e-05 1 1.2448392e-05
0.21524383 0.41499656 -0.080549538 2.2136419e-05 5.6006487e-05 1 1.2482529e-05
0.22427841 0.41583973 -0.080549531 -0.14824511 0.0071644406 0.98892468 0.03078435
0.23362152 0.41502291 -0.080549531 -0.28968713 -0.012208232 0.95704353 0.056365211
0.24318866 0.41486734 -0.080549531 -0.6050241 0.018305494 0.79599667 0.095893651
-0.23501596 0.42619258 -0.080549531 0.5053615 -0.13964377 0.85153353 0.093843915
-0.22387628 0.42599252 -0.080549531 0.20211892 -0.19330597 0.96009415 0.049568329
-0.21356802 0.42497736 -0.080549531 0.036404286 -0.12243883 0.99180818 0.023063496
-0.20603912 0.42429224 -0.080549531 0.0097540915 -0.052312717 0.99858314 0.0069391369
-0.1940916 0.42603451 -0.080549531 0.0072463332 -0.019337507 0.99978679 0.0020379529
-0.1842417 0.42651856 -0.080549531 -8.0817881e-06 7.0970375e-05 1 1.5122788e-05
-0.17287646 0.42508075 -0.080549531 -2.5514901e-05 6.9535599e-05 1 1.3517561e-05
-0.16715226 0.4265672 -0.080549531 -2.8271901e-05 6.7398381e-05 1 1.4273147e-05
-0.15514371 0.42516318 -0.080549538 -1.964374e-05 5.9393104e-05 1 1.4475666e-05
-0.14426452 0.42465276 -0.080549538 -6.2757235e-06 7.9882149e-05 1 1.5061864e-05
-0.13899809 0.42953488 -0.080549531 -1.8790093e-05 4.8246584e-05 1 1.5141411e-05
-0.12412285 0.42501315 -0.080549531 -1.5544061e-05 5.7124267e-05 1 1.3032639e-05
-0.11353331 0.42281163 -0.080549531 -1.8514243e-05 5.0834606e-05 1 1.5895414e-05
-0.10474678 0.42319736 -0.080549531 -2.1808804e-05 5.0662074e-05 1 1.4009472e-05
-0.094399005 0.42406785 -0.080549531 -1.2872688e-06 8.0516656e-05 1 1.2849541e-05
-0.084648155 0.4243935 -0.080549531 -3.9889305e-06 3.8401653e-05 1 1.2257055e-05
-0.073660977 0.4252418 -0.080549531 -1.5554882e-05 3.4453566e-05 1 1.5095561e-05
-0.063930467 0.4236275 -0.080549523 -5.0660979e-06 4.6852427e-05 1 1.1869824e-05
-0.052722268 0.42507628 -0.080549531 4.3495956e-07 3.5827466e-05 1 1.2887537e-05
-0.044767942 0.42510775 -0.080549531 -5.1783181e-06 5.1077728e-05 1 1.2927613e-05
-0.035652805 0.42389721 -0.080549531 -3.1153024e-06 4.573405e-05 1 1.3135591e-05
-0.024364309 0.42728466 -0.080549531 -2.4582496e-07 3.7900907e-05 1 1.283192e-05
-0.01429153 0.42548427 -0.080549531 2.1960907e-06 2.1221673e-05 1 1.3219293e-05
-0.0044342969 0.42379341 -0.080549531 -3.9145951e-07 3.02265e-05 1 1.3069442e-05
0.0063375593 0.42557171 -0.080549538 -4.1588905e-06 7.3964206e-05 1 1.325687e-05
0.016536323 0.42475054 -0.080549531 5.4071397e-06 5.1170882e-05 1 1.2883167e-05
0.026325861 0.42494032 -0.080549538 3.7956604e-06 6.2805688e-05 1 1.1913934e-05
0.036843311 0.42551431 -0.080549523 5.855532e-06 6.6648303e-05 1 1.3801065e-05
0.045505315 0.4266409 -0.080549531 1.2665379e-05 9.4667012e-05 1 1.0866605e-05
0.054433979 0.42424172 -0.080549523 1.1090093e-05 4.4403067e-05 1 1.0294831e-05
0.064968608 0.42521212 -0.080549531 8.9453442e-06 3.7129106e-05 1 1.4964762e-05
0.075461961 0.42513818 -0.080549531 1.4769378e-06 7.4255928e-05 1 1.2932495e-05
0.083623268 0.42621213 -0.080549531 1.1993216e-05 3.3396504e-05 1 1.3187501e-05
0.096172966 0.42772299 -0.080549531 2.3395934e-05 7.9878206e-05 1 1.4864705e-05
0.10411143 0.42208809 -0.080549538 6.056775e-06 1.7441684e-05 1 1.222915e-05
0.11360437 0.4257504 -0.080549531 1.1172342e-05 3.4940978e-05 1 1.3377816e-05
0.12408248 0.42680103 -0.080549531 1.5274907e-05 8.333502e-05 1 1.4636384e-05
0.13418218 0.42508981 -0.080549531 2.2231759e-05 5.4148823e-05 1 1.420456e-05
0.14376236 0.42335439 -0.080549531 1.7085291e-05 4.3658467e-05 1 1.4443021e-05
0.15503213 0.42388311 -0.080549531 3.3159613e-05 6.1514416e-05 1 1.5858368e-05
0.1651672 0.42619932 -0.080549538 1.842567e-05 1.7377464e-05 1 1.3531659e-05
0.17366424 0.42391437 -0.080549523 3.7342197e-06 7.8813842e-05 1 1.5187407e-05
0.18507528 0.42572668 -0.080549538 3.2067717e-05 4.9893613e-05 1 1.2815576e-05
0.19639835 0.42479041 -0.080549531 2.2438949e-06 6.5311062e-05 1 1.2529888e-05
0.20870051 0.42635724 -0.080549523 1.7329767e-05 8.2480241e-05 1 1.4775062e-05
0.21567824 0.42577541 -0.080549531 3.7032583e-05 8.7529414e-05 1 1.481431e-05
0.2260973 0.42376718 -0.080549531 -0.1817725 -0.0011457747 0.98333991 0.035802118
0.23225552 0.42522594 -0.080549531 -0.38555863 0.0084097506 0.92264509 0.078192204
0.24274039 0.42467138 -0.080549531 -0.53342402 -0.020968463 0.84558803 0.085627593
-0.24121848 0.43586028 -0.080402203 0.64316082 -0.32522541 0.69323343 0.092662305
-0.23412922 0.43424663 -0.080549531 0.46268627 -0.35697541 0.81147397 0.10542013
-0.22602439 0.4367165 -0.080549531 0.30891898 -0.39723536 0.86416042 0.08198265
-0.21505597 0.43602523 -0.080549531 0.11963806 -0.35942107 0.92547452 0.068843074
-0.20647585 0.43452597 -0.080549531 0.056794804 -0.26680732 0.96207494 0.049751788
-0.19578739 0.43379036 -0.080549531 0.060243063 -0.17586303 0.98256958 0.032550652
-0.18599598 0.43284082 -0.080549531 0.010951004 -0.12616271 0.99194908 0.023902504
-0.17538841 0.4330965 -0.080549531 0.012149596 -0.03448943 0.99933124 0.0035279251
-0.16578048 0.43528199 -0.080549531 0.011175387 -0.021928506 0.99969715 0.0025447388
-0.15469284 0.43557587 -0.080549531 -1.0913365e-05 6.3433668e-05 1 1.4599617e-05
-0.14609325 0.43390825 -0.080549531 -2.2409171e-05 7.7360004e-05 1 1.4767497e-05
-0.13493159 0.43366587 -0.080549531 -1.6473077e-05 5.2374104e-05 1 1.2838681e-05
-0.12636268 0.43414989 -0.080549531 -1.0541882e-05 5.6878656e-05 1 1.3170251e-05
-0.11518091 0.43598217 -0.080549531 -1.1322014e-05 6.0432249e-05 1 1.2729004e-05
-0.10665637 0.43462038 -0.080549531 -1.1095252e-05 3.4450877e-05 1 1.3341795e-05
-0.097194023 0.43277332 -0.080549531 -1.6370646e-05 4.8879079e-05 1 1.4938599e-05
-0.083902173 0.4350265 -0.080549531 -8.4690082e-06 3.4966717e-05 1 1.4264431e-05
-0.074584596 0.4361923 -0.080549531 -1.0581837e-05 3.1914893e-05 1 1.4474901e-05
-0.064153455 0.43456116 -0.080549531 -5.7749662e-06 4.362435e-05 1 1.2890227e-05
-0.055698317 0.43492398 -0.080549531 -9.2620521e-06 3.5539619e-05 1 1.3235658e-05
-0.04612812 0.43382329 -0.080549531 9.3185173e-07 8.0453829e-05 1 1.2022415e-05
-0.034107905 0.43567035 -0.080549531 1.2827947e-05 7.1051451e-05 1 1.2848764e-05
-0.024093784 0.43565765 -0.080549531 -2.3041862e-06 8.303448e-05 1 1.2524966e-05
-0.015408971 0.43497086 -0.080549531 -2.2807426e-06 3.7304668e-05 1 1.3345902e-05
-0.0041677863 0.43342987 -0.080549538 -4.8460738e-06 4.7963051e-05 1 1.3080326e-05
0.0039841225 0.435467 -0.080549531 -1.4373312e-06 7.6575605e-05 1 1.3401413e-05
0.014566191 0.43495306 -0.080549531 3.8816193e-06 7.5023549e-05 1 1.1487441e-05
0.024086803 0.4349986 -0.080549538 2.0357402e-06 5.3341613e-05 1 1.2611938e-05
0.034428108 0.43395728 -0.080549538 1.3554295e-06 4.9673137e-05 1 1.3386458e-05
0.045533672 0.43677524 -0.080549531 1.658982e-05 6.6944041e-05 1 1.2067712e-05
0.055999026 0.43481234 -0.080549531 5.1572652e-06 1.7990351e-05 1 1.1999922e-05
0.064992085 0.43427432 -0.080549531 5.7257048e-06 7.422053e-05 1 1.4324575e-05
0.075076289 0.43629837 -0.080549523 1.2627974e-05 6.4719396e-05 1 1.4094393e-05
0.085195385 0.43737862 -0.080549531 1.1685347e-05 6.77512e-05 1 1.5365489e-05
0.095768981 0.43592572 -0.080549531 1.2240081e-05 5.0805425e-05 1 1.3025247e-05
0.10466722 0.43405101 -0.080549531 1.3145282e-05 3.5107867e-05 1 1.2439369e-05
0.11450633 0.43485594 -0.080549531 1.9299863e-05 6.1385676e-05 1 1.5290505e-05
0.12725189 0.43315801 -0.080549531 1.7737531e-05 2.85813e-05 1 1.4850345e-05
0.13509461 0.43479499 -0.080549538 2.2032724e-05 1.747058e-05 1 1.4611353e-05
0.14519005 0.43510571 -0.080549531 1.5666883e-05 3.1302658e-05 1 1.3291452e-05
0.15528741 0.43513015 -0.080549531 3.2074371e-05 6.9756701e-05 1 1.6130338e-05
0.16358893 0.43486598 -0.080549531 2.433704e-05 7.1816867e-05 1 1.5810545e-05
0.17579976 0.4357354 -0.080549531 3.1361149e-05 9.1638089e-05 1 1.3425963e-05
0.18646777 0.43399 -0.080549531 2.1444337e-05 3.3844623e-05 1 1.2490436e-05
0.1951984 0.43486613 -0.080549531 3.6068981e-05 7.3981282e-05 1 1.1317979e-05
0.20748864 0.4340291 -0.080549531 3.6715461e-05 5.3676951e-05 1 1.4453026e-05
0.21662903 0.43656835 -0.080549523 4.6776204e-05 0.00012057644 1 1.5434045e-05
0.22618414 0.43432876 -0.080549538 -0.19663511 0.0038100902 0.98046935 0.041387174
0.23352545 0.43483639 -0.080549531 -0.32732376 -0.017185612 0.94475597 0.060294814
0.2432138 0.43432707 -0.080549531 -0.63987964 0.045346025 0.76713604 0.092493273
-0.23379019 0.44334602 -0.080477811 0.43627307 -0.55745852 0.70633262 0.084661216
-0.2249846 0.44460919 -0.080549531 0.3091206 -0.70343578 0.64001757 0.082026616
-0.2155488 0.44532233 -0.080510333 0.12742132 -0.63563788 0.76139891 0.083209015
-0.20502937 0.4461391 -0.080549531 0.072897479 -0.51509947 0.85402489 0.095235385
-0.19761918 0.44499651 -0.080549531 0.1265557 -0.4990108 0.85730493 0.083451062
-0.18338898 0.4434123 -0.080549531 0.11125308 -0.3048771 0.94587147 0.065803945
-0.17256752 0.44523907 -0.080549523 0.10690632 -0.24242912 0.96426094 0.052793298
-0.1636945 0.44563875 -0.080549531 0.085271269 -0.19831349 0.97642237 0.043697458
-0.15676789 0.44528416 -0.080549531 0.018447403 -0.12254785 0.99229115 0.02829745
-0.14548589 0.44615805 -0.080549538 0.01373722 -0.11944455 0.99274582 0.028686997
-0.13568699 0.44390267 -0.080549531 0.0079665203 -0.028286124 0.9995681 0.002529715
-0.12536387 0.44514763 -0.080549538 0.00096604932 -0.0029258728 0.99999523 3.4075008e-05
-0.11412636 0.44515803 -0.080549531 6.3429608e-05 -9.6930249e-05 1 1.4980473e-05
-0.10511924 0.44512603 -0.080549531 -1.7925897e-05 2.7857413e-05 1 1.5073526e-05
-0.096344732 0.4447754 -0.080549531 -1.5913607e-05 3.5075984e-05 1 1.5454858e-05
-0.086224936 0.44518504 -0.080549531 -8.0130358e-06 5.3938587e-05 1 1.28206e-05
-0.076333888 0.44826022 -0.080549531 -4.0596842e-06 4.9856812e-05 1 1.4001195e-05
-0.064538077 0.44637975 -0.080549531 -5.1207207e-06 4.6758392e-05 1 1.5610742e-05
-0.055807021 0.44550207 -0.080549531 -6.8968079e-06 1.6854805e-05 1 1.2804725e-05
-0.047606774 0.44312859 -0.080549531 -5.6475069e-06 4.9367321e-05 1 1.3951093e-05
-0.034996167 0.44394237 -0.080549531 4.1056396e-06 5.5198172e-05 1 1.2302727e-05
-0.023527574 0.44247922 -0.080549538 -2.0361251e-06 6.2889376e-05 1 1.2500056e-05
-0.01191191 0.44383669 -0.080549531 -2.2404356e-06 7.5564174e-05 1 1.3441893e-05
-0.0055213529 0.44481856 -0.080549531 1.308235e-05 0.00010203956 1 1.3572422e-05
0.0059417295 0.44811907 -0.080549531 1.0039059e-06 7.8579469e-05 1 1.5530055e-05
0.014159992 0.44516107 -0.080549538 -2.1263718e-07 9.5700401e-05 1 1.5535035e-05
0.025740519 0.44471639 -0.080549531 -1.1154666e-06 0.00010178982 1 1.2963917e-05
0.035686776 0.44612092 -0.080549531 3.3490126e-06 5.3535055e-05 1 1.3966619e-05
0.044206932 0.44387808 -0.080549531 8.2990582e-06 6.1361236e-05 1 1.3259056e-05
0.054321826 0.44456506 -0.080549531 6.0494363e-06 9.7382544e-05 1 1.4123557e-05
0.065408938 0.44507027 -0.080549531 7.7665072e-06 1.7796849e-05 1 1.2359663e-05
0.078027993 0.44288263 -0.080549538 1.4074051e-05 8.8203051e-05 1 1.3063158e-05
0.084719792 0.44533601 -0.080549531 4.8057918e-06 3.264692e-05 1 1.2983244e-05
0.095631562 0.44701031 -0.080549531 1.4145065e-05 5.8912723e-05 1 1.5529778e-05
0.1065418 0.44377482 -0.080549531 2.4868865e-05 6.4167187e-05 1 1.4725958e-05
0.11319814 0.44462743 -0.080549531 2.5575691e-05 4.9347993e-05 1 1.4772927e-05
0.12712471 0.44523737 -0.080549531 1.6479185e-05 4.5019591e-05 1 1.3552263e-05
0.13545093 0.44303507 -0.080549531 2.1607386e-05 3.5685276e-05 1 1.5394851e-05
0.14672922 0.44487247 -0.080549531 3.9366355e-06 8.4553416e-05 1 1.5845864e-05
0.15463239 0.44652927 -0.080549531 2.6891332e-05 7.5939461e-05 1 1.4180348e-05
0.16346493 0.44393778 -0.080549531 1.6704702e-05 5.1377825e-05 1 1.4991788e-05
0.17448032 0.44654381 -0.080549531 2.1895408e-05 7.5292985e-05 1 1.5405898e-05
0.18402399 0.44535956 -0.080549531 2.2398111e-05 3.4654633e-05 1 1.304229e-05
0.19437946 0.44401193 -0.080549531 2.8925737e-05 7.6265082e-05 1 1.0402587e-05
0.20376228 0.44555792 -0.080549531 -2.4754321e-08 1.9570081e-05 1 1.3496096e-05
0.21573216 0.44646683 -0.080549531 -8.4339998e-05 5.0991981e-05 1 1.1190234e-05
0.22577688 0.4445942 -0.080549531 -0.19053672 -0.00073234306 0.9816798 0.031549808
0.23489863 0.44405863 -0.080549531 -0.4538871 0.013499887 0.89095694 0.08417625
0.24448109 0.44269127 -0.080549523 -0.61976129 -0.017934823 0.78458542 0.077520669
-0.2080434 0.45216677 -0.08051379 0.092548512 -0.63049477 0.77065629 0.092472896
-0.19682211 0.45230174 -0.080549531 0.13850389 -0.59481519 0.79184067 0.085618414
-0.18423125 0.4533141 -0.080549531 0.16712418 -0.58385229 0.79447222 0.087108016
-0.17261617 0.45574284 -0.080549531 0.18634658 -0.50252265 0.84424281 0.088859864
-0.16327649 0.4536221 -0.080549531 0.20446707 -0.42841601 0.88014376 0.096365444
-0.15673751 0.45487672 -0.080549531 0.11840302 -0.38083678 0.91703004 0.087653749
-0.14573865 0.45354956 -0.080549531 0.051285453 -0.28291923 0.95777166 0.079613842
-0.1355861 0.45512295 -0.080549531 0.055234738 -0.26845908 0.96170622 0.059780728
-0.12432599 0.45354229 -0.080549531 0.059780337 -0.14413095 0.98775131 0.030650182
-0.11395278 0.45485574 -0.080549538 0.041456573 -0.13163453 0.99043113 0.024736574
-0.10349414 0.45459351 -0.080549531 0.013644716 -0.038240075 0.99917543 0.0039366344
-0.095700495 0.45685193 -0.080549531 0.0038449594 -0.044797212 0.99898875 0.0042359759
-0.084576443 0.45564955 -0.080549531 -1.5188099e-05 -3.5987076e-05 1 1.3581055e-05
-0.075693183 0.45341134 -0.080549531 -4.5434763e-06 5.2419255e-05 1 1.4961039e-05
-0.066287592 0.45445043 -0.080549538 -9.8004566e-06 3.8669168e-05 1 1.3505707e-05
-0.054938648 0.45684195 -0.080549531 -3.5530813e-06 4.5897308e-05 1 1.4797599e-05
-0.045062881 0.45701864 -0.080549531 -7.8596049e-06 4.3269934e-05 1 1.4892955e-05
-0.033047043 0.45354661 -0.080549531 -5.3624431e-06 3.3172637e-05 1 1.5156811e-05
-0.026640922 0.45779189 -0.080549531 -3.5849359e-06 4.9295042e-05 1 1.2418057e-05
-0.011949973 0.4562315 -0.080549531 1.4944708e-06 8.3673993e-05 1 1.4342466e-05
-0.0059644282 0.45466053 -0.080549531 -1.8714418e-06 5.5563229e-05 1 1.3594406e-05
0.0060110963 0.45587033 -0.080549531 5.9853943e-07 6.6653345e-05 1 1.2852178e-05
0.013619306 0.4556556 -0.080549538 -3.1279048e-06 8.4969848e-05 1 1.2954444e-05
0.026892485 0.455266 -0.080549538 1.797308e-05 0.00010623903 1 1.3328062e-05
0.034545042 0.45618844 -0.080549531 -9.8804612e-06 0.00011233056 1 1.5398989e-05
0.046413764 0.45517731 -0.080549538 1.5850579e-05 7.1087088e-05 1 1.339209e-05
0.054766443 0.4562358 -0.080549538 9.0652093e-06 3.518445e-05 1 1.4735776e-05
0.063720688 0.4562529 -0.080549531 2.8292027e-06 7.8453901e-05 1 1.4833579e-05
0.077043079 0.4554162 -0.080549531 1.1246088e-05 6.5672852e-05 1 1.506945e-05
0.086023904 0.45374641 -0.080549531 1.2800663e-05 5.0958639e-05 1 1.5826143e-05
0.093678586 0.4555153 -0.080549538 1.3479766e-05 6.2347695e-05 1 1.4039202e-05
0.1069538 0.45721459 -0.080549531 8.3268451e-06 4.9661623e-05 1 1.3286922e-05
0.11655091 0.45641881 -0.080549531 1.2445704e-05 5.251191e-05 1 1.5241018e-05
0.12353969 0.45427495 -0.080549531 1.1286718e-05 8.9832029e-05 1 1.5479902e-05
0.13684675 0.45446038 -0.080549531 1.7981509e-05 5.4435932e-05 1 1.5715845e-05
0.14527993 0.4549709 -0.080549531 1.9098248e-05 1.9941763e-05 1 1.4026389e-05
0.15720902 0.45330498 -0.080549531 2.0479229e-05 5.1005536e-05 1 1.6036251e-05
0.16322042 0.45489177 -0.080549531 7.5668872e-06 3.8025712e-05 1 1.3682746e-05
0.17438202 0.45488328 -0.080549531 2.3665672e-05 3.9296086e-05 1 1.5711217e-05
0.18609208 0.45298156 -0.080549538 1.7848684e-05 5.9726561e-05 1 1.3265663e-05
0.19487838 0.45445389 -0.080549531 3.668309e-05 4.7442994e-05 1 1.1945863e-05
0.20421977 0.45493579 -0.080549531 2.3200694e-06 7.0842652e-05 1 1.1308583e-05
0.21280468 0.45593867 -0.080549531 2.523442e-05 4.3258831e-05 1 1.2275609e-05
0.22613183 0.4527503 -0.080549531 -0.17616621 -0.0063473443 0.98433995 0.028711827
0.23388295 0.45565796 -0.080549531 -0.33259162 -0.069760039 0.94048727 0.076315954
0.24361147 0.45426753 -0.080521099 -0.66883147 -0.020155303 0.74314076 0.083553009
-0.17063226 0.46100286 -0.080549531 0.25077677 -0.60826331 0.75307816 0.090128429
-0.1668953 0.46219769 -0.080549523 0.22302745 -0.66057426 0.71686852 0.093858525
-0.1548036 0.46371594 -0.080549531 0.18576775 -0.63733602 0.747859 0.11181004
-0.14490634 0.46378845 -0.080549538 0.10450935 -0.51222301 0.85247016 0.092044547
-0.13343136 0.4651303 -0.080549531 0.15837789 -0.4939242 0.85495931 0.088022232
-0.12409527 0.46533301 -0.080549531 0.13837278 -0.41546789 0.89902145 0.077359438
-0.11658413 0.46491098 -0.080549531 0.067694806 -0.26474318 0.96193987 0.067778274
-0.10253523 0.46486616 -0.080549531 0.090349913 -0.2055524 0.97446656 0.042968448
-0.095358588 0.46466348 -0.080549531 0.043583997 -0.14159018 0.98896545 0.02985657
-0.085736148 0.46314996 -0.080549531 0.030565515 -0.12531996 0.99164551 0.02771496
-0.073820166 0.46442398 -0.080549531 0.0053355568 -0.034993358 0.99937332 0.0023069764
-0.063793406 0.46418515 -0.080549531 0.011940804 -0.038375743 0.999192 0.0028280229
-0.055990066 0.4652524 -0.080549531 3.5149071e-05 -1.6181832e-07 1 1.2385154e-05
-0.04489686 0.46547961 -0.080549531 -6.2650065e-06 3.6130048e-05 1 1.3219469e-05
-0.035769816 0.46439624 -0.080549538 -7.6506667e-06 7.1510025e-05 1 9.8819892e-06
-0.023321912 0.46497002 -0.080549538 -1.6415175e-06 2.9218789e-05 1 1.5538124e-05
-0.015771069 0.46739316 -0.080549531 3.2130845e-06 3.3899465e-05 1 1.3052574e-05
-0.0046158028 0.46570784 -0.080549531 -1.1632114e-07 3.7415168e-05 1 1.2110879e-05
0.0026075665 0.46406478 -0.080549538 1.5427943e-06 3.9537037e-05 1 1.2214889e-05
0.015015478 0.46684849 -0.080549531 5.3701291e-07 5.5269451e-05 1 1.2837995e-05
0.026347369 0.46482849 -0.080549531 5.3321819e-06 7.3253745e-05 1 1.4580034e-05
0.036934607 0.46282327 -0.080549531 2.4313744e-07 8.3080755e-05 1 1.5418324e-05
0.042800624 0.46562767 -0.080549538 1.1691715e-05 6.6465589e-05 1 1.6198377e-05
0.056049503 0.46528143 -0.080549531 -3.3537046e-06 8.0495942e-05 1 1.2868994e-05
0.062962733 0.46540546 -0.080549538 1.5716127e-05 7.4261348e-05 1 1.5355772e-05
0.075435191 0.46523923 -0.080549531 9.935402e-06 5.986106e-05 1 1.4130135e-05
0.083977081 0.46583501 -0.080549531 5.7433335e-06 5.0442155e-05 1 1.2991921e-05
0.093896545 0.46461305 -0.080549538 2.2904047e-05 2.7722905e-05 1 1.5943435e-05
0.10450675 0.46493918 -0.080549531 6.6590637e-06 7.4554329e-05 1 1.3257709e-05
0.11497262 0.46536964 -0.080549531 1.9571316e-05 6.9442722e-05 1 1.2642495e-05
0.12468201 0.46178228 -0.080549531 6.9256348e-06 3.0215755e-05 1 1.3318496e-05
0.137208 0.46280628 -0.080549531 2.7223126e-05 5.128569e-05 1 1.5894964e-05
0.14506741 0.4634425 -0.080549531 2.3040426e-05 5.3097268e-05 1 1.3458953e-05
0.15585151 0.46489 -0.080549531 1.880819e-05 5.1773211e-05 1 1.3852167e-05
0.16542995 0.46397343 -0.080549531 2.4871159e-05 6.0266695e-05 1 1.4056727e-05
0.17598671 0.465404 -0.080549531 3.026687e-05 3.8673432e-05 1 1.4815279e-05
0.18416099 0.46488759 -0.080549531 2.3908344e-05 6.5586908e-05 1 1.2120389e-05
0.19283551 0.46523753 -0.080549531 1.8750072e-06 9.5204952e-05 1 1.201099e-05
0.20602383 0.46603766 -0.080549531 1.7519416e-05 3.6298428e-05 1 1.1224231e-05
0.21442117 0.46377099 -0.080549538 4.3838249e-05 5.391366e-05 1 1.1815309e-05
0.2292012 0.46665794 -0.080549531 -0.19957547 -0.026223555 0.97953147 0.035143331
0.23461474 0.46574324 -0.080549531 -0.3739959 -0.019495951 0.92722541 0.074384764
0.24446964 0.46413648 -0.08050593 -0.76046276 -0.02347344 0.64895713 0.074316956
-0.14438882 0.47013894 -0.080549523 0.17524563 -0.68758422 0.70463955 0.088016801
-0.12536928 0.47273752 -0.080503307 0.16668718 -0.57440454 0.80142051 0.10255146
