# .PCD v0.7 - Point Cloud Data file format
VERSION 0.7
FIELDS x y z normal_x normal_y normal_z curvature
SIZE 4 4 4 4 4 4 4
TYPE F F F F F F F
COUNT 1 1 1 1 1 1 1
WIDTH 560
HEIGHT 1
VIEWPOINT 0 0 0 1 0 0 0
POINTS 560
DATA ascii
-0.14994957 0.40020624 -0.012358343 -0.66909969 -0.72212529 -0.17561519 0.056821365
0.15289256 0.40467259 -0.015486915 0.74927288 -0.63276267 -0.19545212 0.043116901
-0.15467305 0.41512802 -0.015719121 0.92641193 0.3501825 0.13832267 0.040042028
0.154667 0.41452849 -0.013864773 0.91336459 -0.3820155 -0.1408163 0.037588585
-0.15467308 0.4250353 -0.014545622 0.98762411 0.13678485 0.076736338 0.0097346026
0.15467308 0.42536241 -0.015050922 -0.99122751 0.11740207 0.060701948 0.0072013712
-0.15467308 0.43441933 -0.014778495 0.99943149 0.019696463 0.027362702 0.00079629582
0.15467308 0.43472606 -0.014330523 -0.99978733 0.010318788 0.017853599 0.00044488563
-0.15467308 0.44455796 -0.014400108 0.99993575 0.0012579875 0.011260503 0.0002170872
0.15467308 0.44486982 -0.013749164 -0.99999344 0.0015564047 0.0032688472 5.5292276e-06
-0.15467308 0.45390782 -0.014475258 0.99987984 -0.0057156654 0.014412006 0.00029081665
0.15467308 0.45406052 -0.015786871 -0.99971563 -0.0086799879 0.022210017 0.0005024682
-0.15467308 0.46464637 -0.014588016 0.99816972 -0.050366469 0.033473317 0.0017419739
0.15467308 0.46390995 -0.014312549 -0.99734432 -0.055138089 0.047581367 0.0025344919
-0.15467308 0.47465858 -0.014346884 0.97794271 -0.19090386 0.084757216 0.014612412
0.15467308 0.47532713 -0.013718207 -0.98363739 -0.16629778 0.069299892 0.010369909
-0.15435648 0.48435342 -0.013383669 0.90837473 -0.39166924 0.14646012 0.039689023
0.15416053 0.48610717 -0.013026293 -0.88280481 -0.45647117 0.11085902 0.042519335
-0.15186121 0.49298102 -0.014335183 0.76399589 -0.62824905 0.14701489 0.055913135
-0.14432253 0.49854609 -0.014846662 0.45007762 -0.86651313 0.21583548 0.05090319
-0.13576987 0.49993578 -0.015171869 0.27538151 -0.93903959 0.20583895 0.027851522
-0.12469071 0.49992603 -0.013840566 0.067555167 -0.97259939 0.22245626 0.014300191
-0.11555986 0.49994022 -0.015643395 0.0081665637 -0.96545744 0.26043272 0.013580363
-0.10508523 0.49993464 -0.014937586 0.016325282 -0.97214967 0.23379152 0.016290095
-0.093724281 0.49993175 -0.014567355 0.025745355 -0.9725517 0.23125811 0.014916776
-0.085134305 0.49993232 -0.014646395 0.00770895 -0.96641183 0.25688285 0.016844295
-0.075373568 0.49993098 -0.014464064 -0.0066636172 -0.97372597 0.22762541 0.016835006
-0.065659285 0.49992386 -0.013564254 0.015004368 -0.98289782 0.18353951 0.018078379
-0.053689104 0.49987698 -0.014882262 0.0601952 -0.98543352 0.15905131 0.016022159
-0.044486597 0.49932957 -0.014016312 0.04064209 -0.99517548 0.089297138 0.012274278
-0.034163542 0.49933314 -0.014464669 0.015368178 -0.99973291 0.017259173 0.0019228129
-0.025030466 0.49933389 -0.014567128 -0.0025567375 -0.99996543 -0.0079105627 0
-0.015094763 0.49934399 -0.015848847 1.8595056e-06 -0.99996912 -0.0078550084 8.3973265e-07
-0.0060620108 0.49933916 -0.015237369 1.6264163e-07 -0.99996918 -0.0078489743 0
0.0052053928 0.49934226 -0.015627496 1.5410477e-06 -0.99996912 -0.0078552598 0
0.014653592 0.49934202 -0.01560455 -3.1483157e-06 -0.99996912 -0.0078551695 0
0.024685124 0.49932536 -0.013485973 6.0196021e-06 -0.99996918 -0.0078484183 3.4277113e-05
0.036188554 0.49933538 -0.01476264 -0.014737137 -0.99975371 0.016590662 0.003273431
0.04445789 0.49932885 -0.013927139 -0.058362629 -0.99439508 0.088160284 0.013126274
0.055176489 0.49993652 -0.015172451 -0.050646961 -0.98356861 0.17328463 0.020258512
0.064779676 0.49992886 -0.01419917 -0.047163751 -0.97695768 0.20815675 0.019717291
0.075376354 0.49994615 -0.016405867 -0.020790555 -0.96548921 0.2596119 0.016481865
0.084410489 0.4999378 -0.015338139 -0.015491096 -0.96386248 0.26594976 0.015399928
0.094995536 0.49993661 -0.015183441 0.014839968 -0.9628889 0.26949 0.015250976
0.10518703 0.49992993 -0.014332706 -0.012575291 -0.97144681 0.23692404 0.016150488
0.11498964 0.49994412 -0.016141666 -0.0029368389 -0.96644765 0.25684673 0.017386554
0.12437285 0.49992368 -0.013533897 -0.062706769 -0.97111273 0.2302344 0.014991876
0.13381682 0.49993104 -0.014470885 -0.20546316 -0.9541052 0.21787199 0.02233161
0.14492728 0.49827996 -0.014478426 -0.5133667 -0.83515906 0.19739312 0.053908929
0.15159811 0.49346671 -0.016443081 -0.71056432 -0.67710078 0.19139743 0.060585313
-0.050555974 -0.49477252 -0.0062508266 0.83025873 0.54719943 -0.10603465 0.090187013
-0.045860529 -0.49867859 -0.0044335276 0.65812445 0.74155164 -0.13028163 0.0842622
-0.034763537 -0.49978721 -0.0047319243 0.43706882 0.89063001 -0.1254953 0.064658768
-0.024018319 -0.49978191 -0.00541182 0.1774191 0.97952539 -0.09514419 0.022915985
-0.016737249 -0.49977991 -0.0056679021 0.034751363 0.99767733 -0.058586292 0.0042296518
-0.0051599909 -0.49979249 -0.0040623522 -5.6975441e-05 0.99730146 -0.073415756 0.010699132
0.0065819905 -0.49980527 -0.0024387485 0.0068949447 0.99626416 -0.086081684 0.016112152
0.014998341 -0.49977466 -0.0063316049 0.0025569012 0.99999666 0.00026148278 0.0019504203
0.025981681 -0.49978447 -0.0050813812 -0.11542647 0.99065769 -0.072623223 0.01733149
0.03557134 -0.4997941 -0.0038603784 -0.34380922 0.93157917 -0.11813349 0.054374862
0.044354934 -0.49977759 -0.0059544551 -0.64840108 0.76016676 -0.041505534 0.075201571
0.05211423 -0.49461579 -0.0042139962 -0.84331042 0.52450365 -0.11714695 0.075046152
-0.050580386 -0.48453254 -0.0065595359 0.97092289 0.21816361 -0.098556496 0.056883842
-0.049610831 -0.4873825 -0.00095176464 0.88533407 0.3951261 -0.24506934 0.07916937
0.052303471 -0.4843981 -0.0042815157 -0.97064948 0.23622091 -0.045158956 0.059996404
-0.05032561 -0.47391838 -0.0059005939 0.99771333 0.0056195897 -0.067354307 0.036647189
-0.04953894 -0.47539103 -0.00064125919 0.95442879 0.085797839 -0.28583989 0.040616009
0.052382946 -0.4743219 -0.004187034 -0.99452305 0.044243272 -0.094691455 0.038118064
-0.050479129 -0.46483195 -0.0074427673 0.99935013 -0.035896733 0.0032716934 0.043488745
-0.049498051 -0.46468663 -0.00043416105 0.94605601 -0.0062017655 -0.32394385 0.039045807
0.052375812 -0.46636361 -0.0051494217 -0.9998495 0.015879452 -0.0069892714 0.03716654
-0.050584313 -0.45445269 -0.0061071957 0.99787259 0.026201677 -0.059698071 0.039863173
-0.049813826 -0.45313922 -0.0012936101 0.96257514 0.0074874931 -0.27091154 0.035617948
0.052548565 -0.4539198 -0.0051126964 -0.99895555 0.014966362 -0.043172799 0.044347361
-0.050592531 -0.44476047 -0.0064547393 0.99641043 0.028838433 -0.07959038 0.038567122
-0.049678359 -0.44344181 -0.00080982747 0.95612371 0.022766095 -0.29207724 0.038915537
0.052617177 -0.4450359 -0.0058562015 -0.99911278 0.03179194 0.027619237 0.036038902
-0.050501458 -0.43423969 -0.0049584717 0.99134701 0.042167611 -0.12430981 0.038537253
-0.049669653 -0.43060777 -0.00068284431 0.96394563 0.014853004 -0.26568446 0.034594513
0.052532006 -0.43548554 -0.0048605683 -0.99929297 0.018324211 -0.032829892 0.044484627
-0.050389551 -0.42496678 -0.0044156937 0.98277688 -0.0089858426 -0.184578 0.027917538
-0.049770959 -0.42524576 -0.00094555644 0.96779209 -0.0038488808 -0.25172117 0.032226589
0.052305073 -0.42218867 -0.0035536725 -0.99739158 0.021868549 -0.06878759 0.040521856
-0.050435998 -0.41545212 -0.003636633 0.99180913 -0.011039102 -0.12725063 0.032464605
-0.04969658 -0.41833931 -0.00066750718 0.96322 0.0028797637 -0.26869836 0.034929175
0.05260307 -0.4155381 -0.0054412424 -0.99986398 -0.0032818122 -0.016161285 0.034659401
-0.050682459 -0.40515065 -0.0058017932 0.99824494 -0.021685401 -0.05510699 0.040015586
-0.049749915 -0.40491378 -0.00072254241 0.95432091 -0.0023818118 -0.2987743 0.036697265
0.052518506 -0.40401548 -0.004243908 -0.99771601 0.014709238 -0.065927245 0.038489621
-0.050557423 -0.39557865 -0.0057368563 0.99771923 -0.0065993699 -0.067177467 0.037446756
-0.04968562 -0.39653775 -0.00046329969 0.96708548 -0.0036750205 -0.25442502 0.037867878
0.052404251 -0.39633662 -0.0040760874 -0.9975298 0.0051251301 -0.070056826 0.041764848
-0.050594237 -0.38426429 -0.006545763 0.99809903 0.0092365053 -0.06093359 0.037051346
-0.049620945 -0.3863546 -0.00018872165 0.95329118 -0.0072567351 -0.30196556 0.037003916
0.052516337 -0.38468575 -0.0054575433 -0.99778372 0.017598676 -0.06417153 0.03956617
-0.050710239 -0.3744818 -0.005505817 0.9952451 -0.012041297 -0.096655101 0.036693517
-0.049720332 -0.37729537 -0.00041661272 0.95154142 -0.042058386 -0.30463085 0.034076322
0.052504562 -0.37493834 -0.0039092745 -0.99756426 -0.0055174939 -0.069534712 0.031391382
-0.0505023 -0.36654407 -0.005401501 0.9968794 -0.049422957 -0.061552804 0.040136222
-0.049788296 -0.36300048 -0.00050884025 0.96099967 0.0050557679 -0.27650344 0.033430707
0.052651159 -0.36421254 -0.0043241992 -0.9974426 -0.013523898 -0.07018093 0.039661359
-0.050626371 -0.35463566 -0.0046697832 0.99807447 -0.020251853 -0.058627706 0.038856819
0.052502446 -0.35474685 -0.0043426119 -0.9972015 -0.016007569 -0.073026784 0.03138645
-0.050599083 -0.34527692 -0.0057952618 0.99979186 0.0051981532 -0.01972737 0.041094627
0.05235308 -0.34663931 -0.0038189208 -0.99186462 -0.0021855701 -0.12727861 0.026660394
-0.0506359 -0.33439362 -0.005030755 0.99919558 0.038701218 -0.010508642 0.039243877
-0.049895592 -0.33447957 -0.00060767878 0.96131784 0.0078827264 -0.27532867 0.039322831
0.052642126 -0.33407101 -0.0047821733 -0.99439806 0.0033193603 -0.10564753 0.028875191
-0.050584901 -0.32584515 -0.0060824105 0.99989808 -0.00047577659 -0.014271872 0.042208135
-0.049879715 -0.32362875 -0.00047467556 0.96257567 0.054235894 -0.26553074 0.043802164
0.052414596 -0.32475692 -0.0046842182 -0.99436533 0.0013746477 -0.10599887 0.02956781
-0.050539289 -0.31555754 -0.0045816405 0.99922985 -0.038782258 -0.0059728576 0.041481517
-0.049799398 -0.31432351 -0.00015992182 0.96424431 0.006881854 -0.26492563 0.04332741
0.052658148 -0.31531274 -0.003713693 -0.99223 -0.0033926223 -0.12437106 0.031106338
-0.050507877 -0.30477732 -0.0043509356 0.9994185 -0.024775349 -0.023425497 0.039611664
-0.049872488 -0.30491281 -0.00030593778 0.97025067 -0.046285301 -0.23763688 0.03609493
0.052287053 -0.30386248 -0.0044198255 -0.99234992 3.7441069e-07 -0.12345714 0.031919867
-0.050812829 -0.29498392 -0.0051510953 0.99998581 -0.0027478037 -0.004564838 0.03966172
0.052749038 -0.29508239 -0.0053964728 -0.9945159 -0.0032422887 -0.10453523 0.027433878
-0.05053176 -0.28383109 -0.0048253778 0.99955815 0.028229034 -0.0093048448 0.040247705
0.052633803 -0.28590009 -0.0047162645 -0.99733615 0.002291013 -0.0729068 0.028294003
-0.05067642 -0.27514872 -0.004534842 0.99712026 0.0065781507 -0.075551145 0.04245295
-0.049964342 -0.27893645 -0.009655226 0.97802454 0.0055076024 0.2084171 0.031226406
0.052643761 -0.27495691 -0.0056512211 -0.99485266 -0.022991346 -0.098689385 0.030023184
-0.050520215 -0.26516387 -0.0053764465 0.99964386 0.015587439 -0.021662731 0.04081272
-0.049931426 -0.26169378 -0.0065630637 0.99823499 0.037623588 0.045950714 0.042981099
0.052715726 -0.26622909 -0.0067934492 -0.99898416 -0.01293667 -0.043165796 0.024170658
-0.05050518 -0.2554526 -0.0052970164 0.99973249 -6.1552055e-05 -0.023128597 0.040786523
-0.04987748 -0.25175092 -0.0098642986 0.97853667 0.0087476 0.20588678 0.038017385
0.052756775 -0.25511166 -0.0037899688 -0.9939335 0.0041323188 -0.10990485 0.02997102
-0.050510071 -0.2453744 -0.0050490755 0.9998374 -0.0085098268 -0.015898904 0.042692553
-0.049910747 -0.24245889 -0.0096294805 0.98667783 -0.00092988397 0.16268383 0.044324119
0.052582819 -0.24457857 -0.0036822695 -0.99849844 0.025916168 -0.048262186 0.034001172
-0.050532736 -0.23575787 -0.0057044234 0.99986607 0.0032384638 0.016039014 0.040496565
-0.049940571 -0.23459697 -0.0094226198 0.98199832 -8.7915076e-05 0.18888956 0.046686925
0.052796677 -0.23565547 -0.0045882668 -0.99809313 0.04329329 0.043998651 0.030821674
-0.050494924 -0.22334856 -0.0047546024 0.99940002 0.02503076 -0.023941241 0.031716254
-0.04997693 -0.22820106 -1.7693499e-05 0.96678376 -0.011870991 -0.25532001 0.035351329
0.052624416 -0.22526442 -0.004865197 -0.99988675 -0.0094235567 -0.011735487 0.028970079
-0.050651614 -0.21536385 -0.0044125398 0.9986161 -0.0070646903 -0.052115355 0.040333651
-0.049886353 -0.21161598 -0.0095058978 0.97942442 -0.00087426911 0.2018095 0.034198552
0.052750945 -0.21393643 -0.0044579701 -0.9975273 0.0057518715 -0.070044175 0.032695062
-0.050610751 -0.20359345 -0.0046723625 0.99931479 0.020507308 -0.03081275 0.037403308
0.052698828 -0.20389922 -0.0039589219 -0.9982686 0.024814744 -0.053329468 0.031593286
-0.050581712 -0.19526738 -0.0026144285 0.9922449 0.021004356 -0.12251074 0.040247079
-0.049983434 -0.19440791 -0.0088984407 0.98274833 0.012730668 0.18450959 0.041354325
0.052673779 -0.19547611 -0.0053280159 -0.99985105 0.010891471 -0.013392458 0.030551881
-0.050512504 -0.18412434 -0.0044689155 0.99896139 0.038808085 -0.023875641 0.035190023
-0.049875181 -0.18511379 -0.009352087 0.96694934 -0.0093196221 0.25479817 0.034206375
0.052860428 -0.18512468 -0.0046228631 -0.9990651 -0.043168824 -0.0022885862 0.035766758
-0.050393403 -0.17489393 -0.0056847571 0.99858373 0.023292685 0.047833346 0.043821178
-0.049792659 -0.17434937 -0.0096690282 0.97726083 0.016801091 0.21137422 0.040975198
0.052769434 -0.17543307 -0.0037848086 -0.99730921 0.013438513 -0.072067387 0.03400838
-0.050673038 -0.16520613 -0.0043972414 0.99988562 -0.0048118387 -0.014338395 0.039795086
-0.049882848 -0.16453959 -0.0091532199 0.96490467 0.0015824719 0.26259547 0.035141986
0.052629724 -0.16508922 -0.0031759073 -0.99912781 0.014910554 -0.039003361 0.04195476
-0.050624054 -0.15545738 -0.0029878672 0.99425191 -0.014382355 -0.10609538 0.040551409
-0.049836669 -0.15473963 -0.0093008988 0.97423017 0.0059486744 0.22547761 0.038799591
0.052808091 -0.15510608 -0.0045521325 -0.99993128 0.0049780416 0.010606659 0.031693369
-0.050671477 -0.1456511 -0.0039029138 0.99952567 -0.017960344 0.025018873 0.039787669
-0.049899857 -0.14573231 -0.0089227455 0.9796263 -0.015359947 0.20024095 0.041299447
0.052699838 -0.14600314 -0.0057643503 -0.99760884 -0.0051620449 0.06891945 0.033318538
-0.050754607 -0.13494378 -0.00365529 0.9970578 0.022239942 -0.073356301 0.041931313
-0.049856622 -0.13552378 -0.0090528773 0.97385836 -0.032387782 0.22483552 0.042993139
0.05262984 -0.13590512 -0.0053861248 -0.99157196 -0.015179779 0.12866496 0.029369649
-0.050638791 -0.12549324 -0.0046098963 0.99966502 -0.012390424 0.022721479 0.040649042
-0.049722005 -0.12623365 -0.0096348571 0.95918906 -0.026453936 0.28152519 0.029686762
0.052519314 -0.12486484 -0.0049548019 -0.9999913 -0.0011286676 0.0040241671 0.035229381
-0.050681755 -0.11342347 -0.0029530437 0.99887729 0.015328426 -0.044823781 0.033207454
-0.049808823 -0.11504802 -0.0091246292 0.96151865 0.0049926438 0.2746942 0.035969198
0.052697543 -0.11483525 -0.0043847254 -0.99928951 0.015332196 0.034430142 0.039141074
-0.050696041 -0.10494136 -0.0030655628 0.99842554 -0.044243366 -0.034481093 0.04302996
-0.049930412 -0.10393816 -0.0084458468 0.97823012 0.019496005 0.20660508 0.038600132
0.052581605 -0.10587795 -0.0056723091 -0.99853903 -0.0083630076 0.053383999 0.038298231
-0.050597675 -0.095458016 -0.0045176474 0.99903899 0.0021853608 0.04377481 0.043956388
-0.049813017 -0.092977032 -0.0089308666 0.9671908 0.02275531 0.25302988 0.033236764
0.052516785 -0.096155606 -0.0054445821 -0.99844742 0.00040535556 0.055700481 0.0320893
-0.050614748 -0.085108772 -0.0039394544 0.9999401 0.010683776 0.0023876382 0.04255667
-0.049790107 -0.085770354 -0.0089857299 0.97418034 -0.025808308 0.22429119 0.036119491
0.052629072 -0.08405818 -0.004591878 -0.99751133 0.0084016146 0.070003487 0.027733613
-0.050674926 -0.074689269 -0.0035141229 0.99379277 -0.10960945 0.019019654 0.035449963
-0.049887139 -0.075163335 -0.0084303366 0.97222149 -0.066169769 0.22451487 0.042111546
0.052505955 -0.073623277 -0.0059634382 -0.98882043 -0.098977491 0.11152375 0.034471191
-0.050563965 -0.065033026 -0.0043891254 0.98147047 -0.1892453 0.030032506 0.044306409
-0.049793396 -0.067017227 -0.0088224374 0.95180261 -0.16615175 0.25780883 0.034780219
0.052689094 -0.06497217 -0.0036770313 -0.9786886 -0.20340456 0.028201083 0.039201554
-0.050814688 -0.055995516 -0.0023884089 0.9638024 -0.26405495 -0.036877006 0.040033557
-0.045585155 -0.052245606 -0.0052190302 0.96885765 -0.24171591 0.053742513 0.05395342
0.046198204 -0.052093841 -0.0044084764 -0.96345472 -0.26568389 0.034161739 0.046383776
0.052570615 -0.054929297 -0.0036140278 -0.95890594 -0.28333557 -0.014844557 0.039472081
-0.042622682 -0.04591893 -0.0038669745 0.95757395 -0.28209963 -0.058922395 0.085407011
0.043484822 -0.045419876 -0.0041770567 -0.93578249 -0.3493942 -0.047274854 0.092786066
-0.04259745 -0.034468435 -0.0053140181 0.98769557 -0.1148174 0.10618141 0.071947485
0.043302633 -0.034281425 -0.00577003 -0.98978651 -0.13460423 0.046950676 0.084324963
-0.042792182 -0.02479456 -0.0061528757 0.9939149 -0.045410298 0.10035465 0.070137814
0.043559995 -0.026662717 -0.003208095 -0.99189031 -0.10663053 -0.069162466 0.068369731
-0.042718127 -0.015198112 -0.0043480094 0.99897438 0.0085496958 -0.0444635 0.070781566
0.043480605 -0.014604582 -0.004322771 -0.99617893 0.024181072 -0.083920993 0.064117856
-0.04256811 -0.0061679455 -0.0058816383 0.99966484 -0.025186008 0.0059861862 0.074643753
0.043156762 -0.0059459191 -0.0048194765 -0.99984688 0.017310917 0.0025631948 0.067093052
-0.042503655 0.0049560782 -0.0053922199 0.99918532 -0.03974605 0.0069875345 0.068591066
0.043499306 0.0058787647 -0.0052527408 -0.99808347 0.00713751 0.061468173 0.060700383
-0.042798597 0.014070679 -0.0056135962 0.99924934 -0.034712173 0.017198304 0.067932181
0.043415803 0.015313734 -0.0043173209 -0.9980464 -0.034082651 -0.052360941 0.073917203
-0.042712182 0.02513545 -0.0055447132 0.99831724 0.023966618 0.052804422 0.066636175
0.043436956 0.027029281 -0.004885783 -0.9999606 0.008720939 0.0016231627 0.065266952
-0.042848818 0.035838425 -0.0047448264 0.99996698 0.0080795474 -0.00078067736 0.076204747
0.043369818 0.034215931 -0.0050944514 -0.99981052 -0.019444104 -0.00088597473 0.063768946
-0.042728733 0.044539995 -0.0048337439 0.99540383 0.016741591 0.094291575 0.064415969
0.043505747 0.044469662 -0.0044807079 -0.99978143 0.020360311 0.0047381897 0.064158425
-0.04264953 0.055320524 -0.0043573687 0.99971646 0.018010428 -0.015577247 0.076101683
0.043481704 0.054854173 -0.0049151508 -0.99050069 -0.015865717 0.13658926 0.054714661
-0.042778347 0.065817505 -0.0043368321 0.99874228 -0.036271997 0.034615219 0.068447329
0.043485135 0.065805815 -0.0061184587 -0.98830789 0.0056079794 0.15236793 0.051893298
-0.042651273 0.075347707 -0.0059814043 0.9978646 -0.034043536 0.055743176 0.070517875
0.04346133 0.074454963 -0.0046732011 -0.99921054 -0.035897706 0.01702027 0.060531918
-0.042658918 0.085204974 -0.0055331038 0.99617237 0.00093023531 0.087405682 0.05808815
0.043485541 0.085176498 -0.0054810103 -0.99527144 0.026918655 0.0933282 0.060691755
-0.042746536 0.096712716 -0.0053947712 0.9987756 0.025635993 0.042310078 0.064815499
0.043443311 0.095393181 -0.0060575181 -0.99246329 -0.024050811 0.1201586 0.061438095
-0.0425894 0.10565384 -0.0055494723 0.99540085 0.020919966 0.0934854 0.058631863
0.043356568 0.10535846 -0.0048861154 -0.99742365 0.028877908 0.065666728 0.070124194
-0.042776287 0.11510273 -0.0046190326 0.99821651 0.018028697 0.056910649 0.066102713
0.043604139 0.11441572 -0.0038760691 -0.99910849 -0.01662861 0.038805194 0.050895568
-0.04264329 0.12428592 -0.0063345311 0.99418563 -0.027081605 0.10421865 0.059442569
0.043541953 0.12475729 -0.0049103959 -0.99815375 0.0010428679 0.06073048 0.069527842
-0.042840328 0.13600944 -0.0037946473 0.99957371 0.018177791 0.022849912 0.073671207
0.043324277 0.13519183 -0.0064652604 -0.98638994 -0.008501783 0.16420306 0.051248096
-0.042559974 0.14425761 -0.0041994574 0.99705994 -0.016979586 0.074720733 0.0618641
0.043351244 0.14523958 -0.0058628656 -0.99371189 -0.0041073007 0.1118922 0.069388315
-0.042654365 0.15516651 -0.0043888902 0.99931878 0.0023369864 0.036831245 0.073990196
0.043435194 0.15447177 -0.0043001133 -0.99308151 -0.0013178301 0.11741949 0.060509693
-0.042622082 0.16546459 -0.0049916985 0.99299008 -0.00069764507 0.1181958 0.055505835
0.043559674 0.16330624 -0.004377896 -0.99958611 -0.023927476 0.015972551 0.065209657
-0.04263059 0.17537151 -0.0060340222 0.99208552 0.016302096 0.12450119 0.058529414
0.04361989 0.17546177 -0.0032890521 -0.99892974 -0.038081661 -0.026250813 0.061163127
-0.042375118 0.18560801 -0.0060892045 0.99177474 0.0033143407 0.12795268 0.056403168
0.04335697 0.18378274 -0.0053902818 -0.99044174 -0.024046253 0.13581926 0.05889675
-0.042741712 0.19473661 -0.0041581099 0.99873036 -0.029876515 0.040560398 0.073772557
0.043560103 0.19566628 -0.0049800696 -0.99303925 0.029718542 0.11397356 0.062272191
-0.042885929 0.20473176 -0.0024592846 0.99987239 0.0066008195 -0.014548922 0.071158499
0.043222733 0.20570305 -0.0060236612 -0.98678195 0.032435931 0.15877433 0.050181199
-0.042708587 0.21516699 -0.0057492349 0.98142838 0.034625247 0.18867773 0.044318497
0.043309305 0.21475564 -0.005928617 -0.98303127 -0.0077233012 0.18327565 0.052610997
-0.04268245 0.22545719 -0.0038576608 0.98584396 0.11526906 0.12175738 0.065349333
0.043439217 0.22456646 -0.0044059884 -0.98337656 0.13410202 0.12242197 0.074756943
-0.04279992 0.2343788 -0.005023222 0.98462522 0.10693426 0.13812381 0.072295226
0.043513428 0.23483384 -0.0046469742 0.96410584 -0.24141438 -0.1105396 0.073728494
-0.047152527 0.24461408 -0.0046990351 -0.97919124 -0.19059283 -0.069706075 0.031624857
0.046212699 0.24296772 -0.007470753 0.95173508 -0.25203997 -0.17514636 0.058253538
0.051225908 0.24648894 -0.0033300652 0.96766096 -0.24656914 -0.053254504 0.038175169
-0.048927899 0.25408578 -0.0047767702 0.98773974 0.14405614 0.060149774 0.033328302
0.049885958 0.25167605 -0.0094236732 -0.96262467 0.17476429 0.20690873 0.03371942
0.05084414 0.25646111 -0.0055221394 -0.98143882 0.16506064 0.097636439 0.038743149
-0.048787434 0.26399717 -0.005699784 0.98877406 0.077727035 0.12761016 0.027649522
0.049829446 0.26035094 -0.0095731476 -0.94454634 0.11531487 0.30746481 0.040532
0.050650205 0.26327923 -0.0063614291 -0.98649806 0.09124811 0.13599809 0.040763043
-0.049190644 0.27382404 -0.0040631811 0.989766 0.0064034117 0.14255597 0.029268347
0.049862318 0.27476847 -0.0093333274 -0.95328379 -0.0066432906 0.30200312 0.036542837
0.050884906 0.27468804 -0.0052713538 -0.99336922 -0.039281778 0.1080483 0.043049213
-0.049095631 0.28578064 -0.0046431776 0.98302722 0.017443685 0.18262866 0.026079096
0.049857758 0.28615764 -0.0092614479 -0.95899636 0.0095850993 0.28325605 0.031014802
0.051179372 0.28559935 -0.0039886176 -0.99565613 0.0086194919 0.092706434 0.039982144
-0.049059596 0.29465073 -0.0049911132 0.98370838 0.0019260152 0.17976153 0.027757438
0.049903594 0.29479891 -0.0090170782 -0.95897943 0.00038622695 0.28347561 0.039668333
0.050906338 0.29468137 -0.0051570651 -0.98533589 -0.0060270671 0.17051914 0.037648764
-0.049049329 0.30546027 -0.0053334008 0.98752648 -0.027112581 0.15510111 0.033459198
0.049870815 0.30992565 -0.0087875715 -0.96962279 0.010130664 0.24439552 0.028042236
0.051084261 0.30645588 -0.0043146955 -0.99305838 0.035289917 0.11220363 0.042905971
-0.049077876 0.31468454 -0.0056478926 0.98655546 -0.029152714 0.16080564 0.034387298
0.049797937 0.31372204 -0.0090516219 -0.95053655 -0.015933363 0.31020379 0.035103805
0.051168364 0.31541523 -0.0039796489 -0.9967972 0.0012713798 0.079961084 0.036968622
-0.049292255 0.32507694 -0.0046642963 0.99448431 0.014302318 0.10390525 0.038019452
0.04981035 0.32675764 -0.0089470139 -0.96907669 0.028192075 0.24514407 0.027245469
0.050953027 0.32616323 -0.0046112686 -0.99594587 -0.0010631377 0.089948438 0.042508308
-0.04941193 0.33549401 -0.0037087288 0.99493635 0.023462759 0.097730204 0.036536511
0.049727809 0.33522046 -0.0092279324 -0.95165265 -0.049123682 0.30322284 0.033904135
0.050853971 0.33550274 -0.0049571302 -0.98811626 -0.044627573 0.14708726 0.038736947
-0.049176935 0.34578094 -0.0052074906 0.99472404 0.03557092 0.096222349 0.033755075
0.049654499 0.34481743 -0.0094683506 -0.95480204 0.0057032811 0.29718783 0.035091858
0.050977226 0.34395379 -0.0043701841 -0.99257886 -0.010941728 0.12110898 0.038732804
-0.049066581 0.35413039 -0.0062413006 0.9805401 0.089866862 0.17454273 0.033601034
0.050800771 0.35376355 -0.0050250757 -0.98582047 -0.0021799116 0.16778928 0.027610822
-0.049269993 0.36382803 -0.0050890716 -0.97294331 -0.21871828 -0.074455 0.064617082
0.049901798 0.36768198 -0.0084165167 0.92028546 -0.2589696 -0.29327378 0.060893916
0.051030699 0.36612415 -0.0039973268 0.96559078 -0.22769879 -0.12564956 0.060836382
-0.051222503 0.37961039 -0.0047344915 -0.78756976 -0.60812706 -0.099575542 0.056609452
-0.049378026 0.37368456 -0.0043684123 -0.86660999 -0.48553437 -0.11508063 0.069581829
0.049815204 0.37209255 -0.0087306937 0.90200019 -0.35357434 -0.24775161 0.068455428
0.051466227 0.37529343 -0.0042360374 0.83738124 -0.52691984 -0.14542437 0.064265177
-0.063951135 0.38902685 -0.0031695229 -0.57501954 -0.81473601 -0.074550807 0.050718524
-0.054712638 0.38309419 -0.0045452937 -0.78660351 -0.60291433 -0.13322604 0.056402501
0.05694792 0.3835648 -0.0045780898 0.78435493 -0.61198521 -0.10129896 0.036667705
0.063459747 0.3886328 -0.0043982961 0.60468662 -0.79244465 -0.079909623 0.044445407
-0.14460334 0.39684552 -0.0057762512 -0.51787752 -0.85339093 -0.059386924 0.033516329
-0.13592084 0.39541137 -0.0048077409 -0.32902467 -0.94276148 -0.05425455 0.034224648
-0.12423695 0.39541578 -0.0053758468 -0.04290254 -0.99751872 -0.055818468 0.0034611183
-0.11455432 0.39541018 -0.004655411 -0.0047029709 -0.99831629 -0.057813611 0.0029161372
-0.10552797 0.39541811 -0.0056678541 -0.00018161209 -0.99517494 -0.09811613 0.0061829393
-0.095597014 0.39541832 -0.0056955679 0.0081749689 -0.99705064 -0.076309398 0.0037423999
-0.084594578 0.39541671 -0.0054937652 -0.10061307 -0.99198169 -0.076480366 0.010898002
-0.07513386 0.3954078 -0.0043570423 -0.26305178 -0.96132463 -0.081600823 0.021409677
-0.067529276 0.39469588 -0.0051650382 -0.38386145 -0.91649491 -0.1126386 0.043533742
0.068156846 0.39396015 -0.0063624317 0.45140931 -0.88432246 -0.11917809 0.037098784
0.072980918 0.39541656 -0.0054700468 0.29507035 -0.94692206 -0.12756217 0.028091945
0.085772075 0.39540571 -0.004087741 0.078269184 -0.99442649 -0.070638992 0.011125812
0.095109068 0.39542222 -0.0061898348 0.015915779 -0.99462199 -0.10234121 0.0058309082
0.10512174 0.39541298 -0.0050180717 0.00048252352 -0.99793851 -0.064175755 0.0037503783
0.11346684 0.3954061 -0.0041433936 -0.00049266411 -0.99787933 -0.065090299 0.00326467
0.12539923 0.3954117 -0.0048549566 0.094011836 -0.99428725 -0.050543319 0.0081757046
0.13526188 0.39542899 -0.0068518589 0.28502887 -0.95262194 -0.10615987 0.029985592
0.145698 0.39727521 -0.0050094635 0.56352609 -0.82321745 -0.068930708 0.044871863
-0.15310133 0.405215 -0.0053342828 -0.88223636 -0.4693611 -0.036866799 0.036167897
0.14985277 0.40003091 -0.0023652553 0.70195693 -0.70939344 -0.063383788 0.063459516
0.15302724 0.40505064 -0.0036813936 0.84873843 -0.52568847 -0.057400379 0.055949762
-0.15467308 0.41630873 -0.0054000714 0.97472125 0.2220124 0.025079325 0.019981213
0.15467308 0.41517395 -0.004413228 -0.96367627 0.266164 0.022019047 0.027373252
-0.15467308 0.42628562 -0.0046688691 0.99885815 0.04476288 0.016695123 0.0013648459
0.15467308 0.42388153 -0.0057800584 -0.99284571 0.11835843 0.015769459 0.0064791562
-0.15467308 0.43427426 -0.0049873679 0.99995315 0.0094320709 0.0021756277 0.00016191685
0.15467308 0.43474653 -0.006204376 -0.9999513 0.0093483496 0.0031475837 0.00017338507
-0.15467308 0.44507533 -0.0049440642 0.9999997 -7.4091508e-06 0.00078379636 0
0.15467308 0.44480541 -0.0048476867 -0.99999994 -3.2731117e-05 0.00029087055 0
-0.15467308 0.45549032 -0.0060111745 0.99999624 -0.0025151088 0.0011286446 0
0.15467308 0.45507997 -0.0059043472 -0.99999899 -0.0006855611 0.0012552206 0
-0.15467308 0.46545139 -0.0050783409 0.99948442 -0.031458948 0.0064267167 0.00072154641
0.15467308 0.46287313 -0.0056415321 -0.99992085 -0.011222903 0.0056931023 0.00015064333
-0.15467308 0.47459623 -0.0033371286 0.9902727 -0.13832375 0.015050319 0.009557968
0.15467308 0.47511256 -0.0044124727 -0.98889142 -0.14767396 0.01691808 0.0091099488
-0.15442692 0.48489833 -0.0062221508 0.93544149 -0.35060057 0.045038626 0.036914825
0.15429576 0.48536667 -0.0052606706 -0.92225003 -0.38509724 0.033985943 0.035114817
-0.15173274 0.49320349 -0.0061046346 0.74429148 -0.66229904 0.085965782 0.060261812
-0.14326493 0.49876651 -0.0048117023 0.48260614 -0.87224984 0.07919319 0.052037932
-0.13486765 0.49985465 -0.0049625109 0.24713837 -0.96559811 0.080888391 0.020059548
-0.12542835 0.4998531 -0.0045489701 0.082160085 -0.99324828 0.08189971 0.0084992256
-0.11571424 0.49987054 -0.0067663831 -0.0039565773 -0.99408126 0.10856686 0.0064922366
-0.10481891 0.49984831 -0.0039413418 -0.0011696038 -0.99597621 0.089610137 0.0061325827
-0.094350487 0.49986696 -0.0063192816 0.017058279 -0.99479914 0.10041754 0.0068077524
-0.084806487 0.49985099 -0.0042895423 0.013827401 -0.99766618 0.066865802 0.0060488721
-0.075250961 0.4998529 -0.004523064 -0.0037549045 -0.99615473 0.087530755 0.008597387
-0.066241629 0.49986297 -0.0058139446 -0.0042120614 -0.99658483 0.082468219 0.0068699298
-0.054200649 0.49982777 -0.0063958433 0.0025086873 -0.99821883 0.059606005 0.0037540067
-0.045101065 0.49924526 -0.0032786322 -0.010789874 -0.99994177 0.00034428862 0.00025979878
-0.035453614 0.49925354 -0.0043302965 -0.0016020857 -0.99999857 -0.00048221427 0.00040636054
-0.024414381 0.49925208 -0.0041441079 -0.002682256 -0.99996102 -0.0084102554 0.00014021093
-0.015413648 0.49926135 -0.0053327791 4.0065879e-06 -0.99996924 -0.0078505585 0
-0.006149739 0.49924466 -0.0032039166 4.0178739e-07 -0.99996918 -0.0078549944 0.00010593977
0.0052293795 0.49925637 -0.0046883062 1.3245186e-06 -0.99996918 -0.0078525273 0
0.014245886 0.49925825 -0.0049309675 1.9474564e-06 -0.99996918 -0.0078593446 0.00018362925
0.025088012 0.49925971 -0.0051247757 0.0029127332 -0.99996459 -0.0078958673 2.4134593e-07
0.036061075 0.49925879 -0.0050015328 0.0071487189 -0.99997246 -0.0019809704 0.00021510545
0.045296926 0.49925813 -0.0049180458 0.0016259514 -0.99953198 0.030547261 0.0029884125
0.054604087 0.49986619 -0.0062171803 -0.0097212503 -0.99746078 0.070551381 0.0056419708
0.064979523 0.4998616 -0.0056377375 -0.014843446 -0.99703836 0.075459912 0.0071047232
0.0743386 0.49984574 -0.0036185973 0.0036513775 -0.99752271 0.070250466 0.0070585581
0.085342944 0.49985576 -0.0048942189 0.00013243768 -0.99728471 0.07364174 0.0045049083
0.095218927 0.49986124 -0.0055812579 0.0023409014 -0.99315262 0.11680058 0.0079791984
0.10548129 0.49985203 -0.0044156699 0.0055853431 -0.99509084 0.09880805 0.0079284264
0.11604211 0.49985635 -0.00497087 -0.0079797627 -0.99181038 0.12746997 0.0086545683
0.12684344 0.49985382 -0.0046412232 -0.093087152 -0.99243879 0.079999842 0.009108603
0.13471264 0.49986383 -0.0059157866 -0.23065752 -0.96847701 0.094071738 0.021765014
0.14503697 0.49818903 -0.005641432 -0.50221932 -0.86230153 0.064899705 0.049025983
0.15169056 0.49327996 -0.006021061 -0.65870404 -0.75084144 0.048436347 0.047905225
-0.046036281 -0.49706286 0.0052736043 0.72512585 0.5957889 -0.34529418 0.076283813
-0.035016079 -0.4998582 0.0043070544 0.47131604 0.8278513 -0.30417675 0.073951915
-0.024357369 -0.49986577 0.0052678529 0.17252755 0.93877512 -0.29822052 0.051801488
-0.013754707 -0.49986169 0.0047456324 0.042489156 0.96036053 -0.27550378 0.035420474
-0.005885486 -0.49987406 0.0063206842 0.019087736 0.95171618 -0.30638531 0.051223166
0.0064656874 -0.49986094 0.0046507241 0.016588138 0.97227466 -0.23325229 0.04718044
0.014510837 -0.49985343 0.0036952351 -0.074043684 0.96957099 -0.23334454 0.040310271
0.026471136 -0.49987042 0.0058539361 -0.19027203 0.92401409 -0.33165437 0.058680996
0.034546454 -0.49986795 0.0055429866 -0.37192607 0.82718301 -0.42123544 0.08133775
0.046776608 -0.49881855 0.0048375828 -0.65693617 0.68269205 -0.31994754 0.074219927
0.050769854 -0.4936724 0.0016418098 -0.79506809 0.49443641 -0.3512826 0.070819154
-0.04724177 -0.48547029 0.0057221125 0.84192747 0.29642048 -0.45088038 0.067508481
0.048799086 -0.48183462 0.0075507467 -0.8158583 0.20994596 -0.53879291 0.04690541
0.050893113 -0.48366737 0.001605705 -0.90293896 0.28686813 -0.32001245 0.069887765
-0.047364522 -0.47469682 0.0056231646 0.8634665 0.065203585 -0.50017405 0.037506077
0.048977438 -0.47480166 0.0072784727 -0.82080245 0.10446621 -0.56157809 0.032114755
0.050649174 -0.47522485 0.0025824397 -0.92103314 0.088518187 -0.37929216 0.047996182
-0.047408104 -0.46675953 0.0058244639 0.88807434 0.013708305 -0.4594954 0.041597411
0.04831754 -0.46488068 0.0086185094 -0.79878914 0.003024277 -0.60160345 0.034962237
0.05051006 -0.4631789 0.0031962441 -0.93263984 0.027135618 -0.35978696 0.041912396
-0.04780348 -0.45547909 0.0046856091 0.86468393 0.017093891 -0.50202549 0.026036767
0.048825908 -0.45439568 0.0080339555 -0.80050159 0.017020976 -0.59908897 0.034491375
0.050764628 -0.45305765 0.0023256433 -0.9412238 -0.0022045898 -0.33777642 0.041753974
-0.048128221 -0.44433892 0.0038474286 0.91855425 0.025351617 -0.39448103 0.03899502
0.048732512 -0.44558439 0.0083945738 -0.80513537 -0.02005728 -0.5927518 0.034349665
0.050711494 -0.44448373 0.0025912756 -0.94351131 0.035752974 -0.32940567 0.040253695
-0.047657479 -0.43558306 0.0052900035 0.90181994 -0.0030899742 -0.43210095 0.034923974
0.049120896 -0.43485928 0.0074667181 -0.86767197 -0.016170245 -0.49687406 0.036342449
0.051206347 -0.43491203 0.00081959076 -0.96140772 0.001886734 -0.27512112 0.044624485
-0.048074476 -0.42513171 0.0041032075 0.93014562 0.0096411733 -0.3670643 0.042399082
0.048898853 -0.42489719 0.0077710771 -0.86253226 -0.041944746 -0.50426066 0.037399907
0.050733142 -0.42510241 0.002662699 -0.9450345 -0.03400309 -0.32519758 0.035021782
-0.04767742 -0.41317919 0.0054485667 0.88667613 0.0080989357 -0.46232 0.033569966
0.048866168 -0.41523418 0.0082291039 -0.8508271 0.0049443142 -0.52542251 0.04273114
0.050813954 -0.41362217 0.0024512706 -0.96090931 0.029675944 -0.27526844 0.03977897
-0.048060138 -0.40436637 0.004366213 0.90743226 0.013727784 -0.41997412 0.03156855
0.048604183 -0.4060199 0.008616155 -0.85659695 0.02354968 -0.51544839 0.038334183
0.050705425 -0.40506431 0.0029235207 -0.95459509 -0.0076441304 -0.29780829 0.037161406
-0.048196115 -0.39498562 0.0040307362 0.92881823 -0.003611868 -0.37051803 0.045105234
0.049280483 -0.39469633 0.0077282661 -0.86687249 0.010179007 -0.49842608 0.040664833
0.050645407 -0.39495257 0.0032269531 -0.93757099 0.0058220644 -0.34774512 0.035146166
-0.047985662 -0.38539723 0.0047392868 0.88781589 0.017563807 -0.45986354 0.034978695
0.04870009 -0.38468862 0.008971123 -0.84718817 0.014026234 -0.53110784 0.035684582
0.050972812 -0.38504332 0.0020828284 -0.95691043 0.024106476 -0.28938079 0.036412925
-0.048036329 -0.37597847 0.0046608215 0.91296738 -0.026688892 -0.4071587 0.027265534
0.049469639 -0.37520394 0.0076374598 -0.88536471 -0.01197041 -0.46474308 0.039699681
0.050917279 -0.37560609 0.0023642129 -0.96057791 -0.0080027115 -0.2778959 0.039865535
-0.047983997 -0.36371517 0.0049145855 0.9211759 0.032114305 -0.38781899 0.036692318
0.048952561 -0.36555073 0.0082963258 -0.86790484 -0.0088392608 -0.49665189 0.045438364
0.050660692 -0.36443725 0.0034095633 -0.95745546 0.020425066 -0.2878572 0.039023232
-0.048090242 -0.35693979 0.0046481183 0.92751306 -0.0045985663 -0.37376231 0.039054051
0.04887234 -0.35648349 0.0086493194 -0.86989373 -0.0058920933 -0.49320403 0.040849343
0.050656226 -0.35582253 0.0034939128 -0.96066493 -0.011705362 -0.27746326 0.034593545
-0.047862552 -0.34471944 0.0054292083 0.90819806 0.02719227 -0.41765639 0.03526146
0.049594939 -0.3433077 0.0074447901 -0.90093613 0.026218966 -0.43315899 0.036485422
0.050893664 -0.34494793 0.0026931446 -0.95851511 0.015838463 -0.28460151 0.04045001
-0.048120745 -0.33575085 0.0047227633 0.93366808 -0.013777759 -0.35787445 0.030503279
0.049295019 -0.33601958 0.0080034956 -0.8898055 0.003522414 -0.45632637 0.035202775
0.050631903 -0.33481467 0.0037496777 -0.94911021 0.0048499522 -0.31490692 0.033454597
-0.048124358 -0.32551149 0.0047923215 0.90297389 0.0045401831 -0.42967153 0.02191874
0.04945457 -0.32356089 0.008084693 -0.8878544 -0.00144751 -0.46012238 0.040789623
0.051067766 -0.32416013 0.0022066256 -0.96291512 0.0076667815 -0.26969555 0.035996526
-0.04826716 -0.31522897 0.0044433996 0.91371 0.0082295127 -0.40628347 0.036723193
0.04903629 -0.315492 0.0090026082 -0.87735134 0.037863091 -0.47835237 0.039042704
0.050859645 -0.31401211 0.0030630699 -0.953821 0.010427956 -0.30019435 0.031477578
-0.04818128 -0.30379358 0.0047915964 0.91599 0.012672445 -0.40100083 0.034044728
0.049454305 -0.3053318 0.0080597112 -0.90924591 -0.011114476 -0.41611099 0.036011547
0.050928589 -0.30374539 0.0028873053 -0.96541142 0.023036417 -0.25971159 0.036429126
-0.048047051 -0.29533443 0.0052619497 0.9003706 -0.026208675 -0.43433383 0.025948999
0.04935905 -0.29341602 0.0081879236 -0.90887123 0.01652622 -0.41674924 0.034895118
0.050759733 -0.29514596 0.0035841551 -0.95556772 -0.0029265971 -0.29475725 0.032656822
-0.047952026 -0.28534982 0.0056262962 0.87448698 -0.030174058 -0.48410952 0.029635509
0.04915135 -0.28834516 0.009187106 -0.88557476 0.0078226961 -0.46443096 0.040301178
0.051042669 -0.2852132 0.0026086397 -0.96618205 0.006141929 -0.25778756 0.033216715
-0.048588455 -0.27450436 0.003796492 0.93084389 0.0037855783 -0.36539748 0.032409385
0.049247786 -0.27481711 0.0089148758 -0.90278322 0.0029877285 -0.43008557 0.037581377
0.051104531 -0.27460912 0.002467717 -0.96818453 0.00027161214 -0.2502372 0.038777862
-0.048009288 -0.26526159 0.0056117806 0.89315039 0.029392364 -0.44879666 0.025993124
0.049579989 -0.26270115 0.0082419999 -0.92900473 0.023955652 -0.36929172 0.027363632
0.050862249 -0.26614869 0.0034393603 -0.95066673 -0.010135453 -0.31004849 0.032603301
-0.04822452 -0.25511116 0.0050438731 0.92228484 0.0038263679 -0.38649175 0.029841576
0.049553048 -0.25647756 0.0083113788 -0.90012866 0.0063346433 -0.43557811 0.037165467
0.050727505 -0.25627193 0.0040183924 -0.96588594 0.017756835 -0.25835821 0.037653089
-0.048093561 -0.24508674 0.0055166627 0.90548033 -0.021150805 -0.42386097 0.03306523
0.049637448 -0.24745715 0.0081472676 -0.90721869 0.0019958168 -0.42065454 0.03525468
0.05095781 -0.24437089 0.0032673611 -0.96289188 0.023878818 -0.2688292 0.0382591
-0.048475709 -0.2354556 0.0044424292 0.93172699 -0.0047368496 -0.36312848 0.034449261
0.049722198 -0.2342099 0.0079350062 -0.91498458 0.0060493816 -0.40344352 0.034740731
0.050860956 -0.2349357 0.0036952926 -0.96494704 0.023830501 -0.26136047 0.032403912
-0.048569512 -0.22474819 0.0042442717 0.95983815 0.019575678 -0.27987042 0.033983115
0.049564712 -0.22534576 0.0085923886 -0.92765349 0.019492066 -0.37293318 0.030216405
0.050942376 -0.22469537 0.0034937586 -0.97065324 0.015415811 -0.23998861 0.036646083
-0.048916824 -0.2149066 0.003276539 0.96010798 0.022786897 -0.2786994 0.033849582
0.049560577 -0.21368703 0.0086994022 -0.90926039 0.036367819 -0.41463569 0.039705016
0.051042885 -0.21535356 0.0031998947 -0.97124535 -0.011151318 -0.23781937 0.037257783
-0.048881143 -0.20446514 0.0034658909 0.95083946 0.030626608 -0.30816618 0.030973172
0.049768485 -0.20634019 0.0079811467 -0.94206923 -0.0032645571 -0.3354027 0.026943788
0.051028252 -0.20704496 0.0033181994 -0.97000593 -0.0099309413 -0.24287829 0.032551672
-0.048791435 -0.19477528 0.0038119343 0.96319962 -0.0078366892 -0.26867297 0.034437854
0.049721628 -0.19572693 0.0082393987 -0.91471845 -0.005006114 -0.40406075 0.035063926
0.050934736 -0.19577394 0.0037641113 -0.97246689 -0.027042536 -0.23146659 0.037603647
-0.048272513 -0.18553872 0.0054459018 0.94443631 0.0025559671 -0.32868445 0.029320041
0.049408972 -0.18392728 0.0094965417 -0.87036848 -0.0051609119 -0.492374 0.034462448
0.050827652 -0.18606043 0.0042376416 -0.96776116 -0.027737822 -0.25033772 0.033941872
-0.048668433 -0.17528582 0.0043351268 0.94708157 0.0039858771 -0.3209683 0.026443997
0.049671903 -0.17813821 0.0085631115 -0.89016247 -0.0061901854 -0.45560125 0.039867911
0.05095185 -0.17467329 0.0038992087 -0.96290207 -0.0090652183 -0.26969886 0.036849029
-0.050114892 -0.16622631 5.3944532e-05 0.96874571 -0.021789914 -0.247097 0.036531266
-0.04823482 -0.16459259 0.0057238215 0.9293732 -0.0043696049 -0.36911565 0.021386564
0.04952592 -0.16629331 0.0092009762 -0.88887358 -0.0096723344 -0.45805058 0.042103596
0.050900396 -0.16474389 0.0041609458 -0.94749135 0.030837724 -0.31829095 0.028484138
-0.050063625 -0.15331256 0.00030964855 0.97303176 0.02821454 -0.22893904 0.034821469
-0.048476599 -0.15529229 0.0050693611 0.93086284 0.00092609791 -0.36536765 0.03568751
0.049592648 -0.15625416 0.0090307835 -0.90644729 -0.0027016534 -0.42231041 0.040015198
0.051185254 -0.1547493 0.003214753 -0.96700156 -0.00071310328 -0.25476936 0.037101518
-0.048356432 -0.14535299 0.0055089993 0.94303489 0.016002217 -0.33230904 0.026347145
0.049781032 -0.14704521 0.008400036 -0.91561669 0.020444987 -0.40153226 0.035576452
0.050998155 -0.14420713 0.0039856075 -0.96527034 0.022657506 -0.26026893 0.033746094
-0.050008502 -0.13249524 0.00063899625 0.96615648 0.043866616 -0.25419974 0.031575326
-0.048250772 -0.13424939 0.0059141447 0.92308402 0.022949098 -0.38391316 0.032876596
0.049631849 -0.13742405 0.0090323742 -0.89906925 -0.0027957575 -0.43779755 0.041879874
0.05091022 -0.13518278 0.0043831011 -0.96453029 -0.0098752854 -0.26378736 0.032818902
-0.050187651 -0.12447747 0.00016291898 0.9767046 0.033523206 -0.2119536 0.035102177
-0.048561856 -0.12451709 0.0050545339 0.94330031 0.0035924932 -0.33192095 0.027884811
0.049667064 -0.12534674 0.0089966441 -0.91956085 -0.018490229 -0.39251244 0.039846167
0.0511785 -0.12399051 0.0035131881 -0.97056991 -0.00024121853 -0.24081941 0.033300348
-0.050053507 -0.11951463 0.00060553744 0.97924447 0.0001576978 -0.20268251 0.03553262
-0.048075784 -0.11418238 0.0065982803 0.91230667 -0.00039308248 -0.40950751 0.024881823
0.049915869 -0.11870988 0.008123219 -0.94517684 -0.01510065 -0.32620946 0.027204616
0.050798181 -0.11440639 0.0049730176 -0.95544773 0.02382426 -0.29419723 0.02723955
-0.050095424 -0.10348807 0.00060528005 0.97676069 0.0013162926 -0.2143289 0.032951448
-0.048614115 -0.10640629 0.0050395643 0.93983132 -0.025862111 -0.34065861 0.024341611
0.049758837 -0.10114738 0.008847164 -0.90804696 0.010332987 -0.41874096 0.032758947
0.050974082 -0.10524461 0.0044189333 -0.94788677 0.040981591 -0.31596088 0.027408142
-0.04830157 -0.094865248 0.0060706236 0.93167341 0.0054029566 -0.36325678 0.030448839
0.049946629 -0.091958195 0.008250406 -0.92400736 0.027541058 -0.38138163 0.034010142
0.050955515 -0.093818292 0.0045878654 -0.95145732 0.010928025 -0.30758649 0.028698787
-0.050124455 -0.084222764 0.00066923368 0.9707613 0.0053226152 -0.239988 0.037632741
-0.048446275 -0.085075513 0.0057121087 0.94233674 -0.015638052 -0.3343007 0.026166607
0.049771138 -0.085702181 0.0089403288 -0.90273339 0.016498217 -0.42988405 0.045405015
0.051009081 -0.085503988 0.00446836 -0.96924031 0.0087094894 -0.24596213 0.035055555
-0.05008259 -0.073566087 0.00087891502 0.96888798 -0.060896501 -0.2398909 0.035775721
-0.048648197 -0.075923815 0.0051764078 0.93321294 -0.040309228 -0.35705569 0.033047725
0.049717821 -0.073796734 0.0092390832 -0.92200387 -0.10353226 -0.37308162 0.029220287
0.051230107 -0.07567142 0.0037572121 -0.98351043 -0.063662261 -0.16927618 0.039082121
-0.050100431 -0.062593661 0.00091141614 0.96568298 -0.18714659 -0.18009064 0.03946371
-0.048488904 -0.065139256 0.0057404297 0.92786068 -0.19866627 -0.3156046 0.040169306
0.049783554 -0.065527752 0.0090752188 -0.88871688 -0.1943222 -0.41523638 0.042144321
0.051148128 -0.065806761 0.0041413587 -0.95402193 -0.21364681 -0.21023127 0.035979908
-0.050389308 -0.053108186 0.00011670054 0.95737255 -0.23655008 -0.16577646 0.037198227
-0.045810375 -0.053215005 0.0042023971 0.91141188 -0.25945878 -0.31938925 0.050307117
-0.039271753 -0.051425964 0.0075930329 0.84514344 -0.25201777 -0.47140175 0.069602922
0.038900498 -0.051887959 0.0081258016 -0.78356832 -0.27864504 -0.55531752 0.073348872
0.045477286 -0.052582391 0.0055521657 -0.90185499 -0.27511963 -0.3331168 0.056215409
0.051525731 -0.056247998 0.0028619196 -0.95106453 -0.27257824 -0.14552443 0.035075527
-0.041145589 -0.045468967 0.0029830516 0.90070772 -0.28893292 -0.32441247 0.077322789
-0.037902918 -0.044539228 0.0084190946 0.8029319 -0.20974731 -0.55794835 0.087066382
0.039029445 -0.045830946 0.0080442252 -0.77784193 -0.33877283 -0.52933437 0.085012764
0.041823234 -0.044642974 0.0032117337 -0.93017077 -0.25249773 -0.26650935 0.074215002
-0.041146677 -0.035134584 0.003148806 0.96756738 -0.12166081 -0.22138634 0.069530144
-0.038495611 -0.035292134 0.0078990106 0.8342194 -0.11733105 -0.53880572 0.082378991
0.038975373 -0.035943851 0.008176038 -0.82044959 -0.18103279 -0.54230028 0.083420664
0.041701745 -0.034971602 0.0038285698 -0.95597941 -0.10544249 -0.27383468 0.07233312
-0.041249007 -0.021980224 0.0028993839 0.96421391 0.012816814 -0.26481563 0.064482339
-0.038338009 -0.025220722 0.0081357174 0.8399114 -0.08982522 -0.5352385 0.068105057
0.03880886 -0.025321646 0.0084262369 -0.85139799 -0.043766487 -0.52269107 0.066297188
0.041925237 -0.02540301 0.0032157043 -0.95008576 -0.042973988 -0.3090153 0.066772103
-0.0413226 -0.015460044 0.0026759349 0.97346723 0.0071792197 -0.22871372 0.057266362
-0.038633045 -0.014897294 0.0079217507 0.85201585 0.020609381 -0.52311015 0.065006748
0.038747609 -0.015462928 0.0085650152 -0.84307343 -0.037390713 -0.53649706 0.068677388
0.041271079 -0.015025417 0.0048174672 -0.92293894 -0.041412793 -0.38271245 0.063007779
-0.041445766 -0.0055699139 0.0022939418 0.95963615 -0.03025277 -0.27961269 0.065515108
-0.038943522 -0.0057849297 0.0076828348 0.84739387 -0.03833881 -0.5295788 0.06650237
0.039055753 -0.0064734034 0.008326997 -0.84988397 -0.044133 -0.52511847 0.065382354
0.042320587 -0.0066399388 0.0018852979 -0.9776032 0.00078293332 -0.21045516 0.05627675
-0.040971436 0.0064893351 0.0041407971 0.97161973 -0.0048378571 -0.23649906 0.049773429
-0.038239509 0.0057257302 0.0084772743 0.86029589 0.019890083 -0.50940681 0.063964032
0.038395807 0.0023435589 0.0090572136 -0.83092451 -0.020423831 -0.55601019 0.061710782
0.041469641 0.0064229639 0.0041477778 -0.96146989 0.016488664 -0.27441517 0.0529195
-0.040781282 0.014791236 0.0047922586 0.94774121 -0.0461662 -0.3156825 0.063825451
-0.038504161 0.014160023 0.0082788551 0.85150594 -0.025434932 -0.52372772 0.067808904
0.03945934 0.017721705 0.0081128199 -0.8717947 0.030025447 -0.48895043 0.054718338
0.041942697 0.014986757 0.0032275321 -0.96988809 -0.012372837 -0.24323648 0.059620012
-0.041229367 0.024767015 0.0032786631 0.97665155 0.040711235 -0.21093681 0.051487755
-0.038587194 0.024920546 0.0082803331 0.86230654 0.040243011 -0.504785 0.064681791
0.038343493 0.024744269 0.0092855487 -0.84020728 0.026496211 -0.54161751 0.069814578
0.041758791 0.023684565 0.0039031035 -0.94858468 0.065709628 -0.30962759 0.070530698
-0.0411762 0.035395604 0.0034967139 0.97577596 -0.027824692 -0.21699579 0.053970367
-0.038767453 0.032956664 0.0081631811 0.85359395 -0.052342243 -0.51830268 0.065558888
0.038782146 0.036435343 0.0089380415 -0.85034549 0.029897826 -0.52537483 0.067194059
0.042245988 0.034975484 0.0024909971 -0.9846108 -0.025464531 -0.17289597 0.055924818
-0.041199319 0.045478445 0.0036146631 0.97127801 0.013181969 -0.23758218 0.051525038
-0.038712136 0.046700172 0.0083264448 0.85572571 0.034013845 -0.51631057 0.069115803
0.038519643 0.0455143 0.0092722578 -0.84918982 0.018696222 -0.52775669 0.068085589
0.042245474 0.046943638 0.0025869049 -0.9851377 0.022136597 -0.17033345 0.052254152
-0.041083943 0.053888455 0.0040509589 0.95984334 -0.026694408 -0.27926341 0.067342743
-0.038324881 0.053876474 0.0087700747 0.85741496 -0.037955847 -0.51322401 0.065414853
