# .PCD v0.7 - Point Cloud Data file format
VERSION 0.7
FIELDS x y z normal_x normal_y normal_z curvature
SIZE 4 4 4 4 4 4 4
TYPE F F F F F F F
COUNT 1 1 1 1 1 1 1
WIDTH 563
HEIGHT 1
VIEWPOINT 0 0 0 1 0 0 0
POINTS 563
DATA ascii
-0.024559695 0.033238877 -0.16546212 0.41776094 -0.90855581 -0.0014235396 0.085051119
-0.014409457 0.032438807 -0.16625828 0.16905993 -0.985394 -0.020429119 0.043114826
-0.0061886637 0.031474203 -0.16331309 -0.0025899955 -0.99999291 -0.0027361733 0.012870932
0.0019045937 0.030524559 -0.16592042 -0.11099195 -0.99382132 -9.3885201e-06 3.1933545e-05
-0.0033355372 -0.030356675 -0.15673181 0.11653805 0.99318624 -5.107475e-07 2.6593585e-07
0.0045272824 -0.031279277 -0.15830491 0.11653777 0.9931863 -2.1695744e-06 0
0.015068111 -0.032516111 -0.15358606 0.11653813 0.99318624 5.818186e-07 9.0468852e-08
0.024571292 -0.033631187 -0.15788689 -0.039753139 0.99884838 -0.026861893 0.02119511
0.034644332 -0.034813132 -0.15617733 -0.31514114 0.94819957 -0.040047094 0.064069718
0.04781523 -0.033866629 -0.15711124 -0.66842872 0.74001622 -0.074692801 0.073392741
-0.034602206 -0.02599543 -0.1555118 0.66877085 0.74125016 0.057391215 0.077527106
-0.024678346 -0.027852368 -0.15536907 0.44837728 0.89371705 0.015089603 0.057762094
-0.015334363 -0.028948769 -0.15581684 0.23929706 0.9709453 -0.0014716699 0.016002845
-0.0082988804 -0.029774293 -0.15249676 0.1263167 0.99198949 -0.00093844376 0.00015409169
0.049646508 -0.025877012 -0.1542481 -0.79588068 0.60141981 -0.06977275 0.072281308
0.050146509 -0.021479463 -0.15366031 -0.87978011 0.47536239 -0.0041852905 0.065294363
-0.035277676 -0.015463428 -0.1544994 0.93680513 0.34950164 -0.015642503 0.065783821
0.051086072 -0.0140659 -0.15622029 -0.96626449 0.25471702 -0.038106367 0.024442695
-0.033897787 -0.0036748766 -0.15581691 0.99998963 0.0044138483 0.0011383024 0.017444614
0.052142452 -0.0047394354 -0.15482542 -0.99308789 0.11569913 -0.01975134 0.00020978709
-0.032930851 0.0045411214 -0.15468094 0.99074829 -0.13571188 0.00034856939 0.0011774384
0.053275585 0.0049861008 -0.15452981 -0.99436855 -0.10239216 -0.027333498 0.044855207
-0.031450588 0.017152833 -0.15451068 0.94263577 -0.33050755 -0.046931025 0.034292042
0.054235298 0.01321533 -0.15431353 -0.975025 -0.22155187 0.015526562 0.064124435
-0.030901078 0.021835346 -0.15448135 0.86030018 -0.50846565 -0.036691424 0.080038801
0.0084009357 0.029762294 -0.15734226 -0.11653779 -0.9931863 -1.940138e-06 0
0.015695205 0.028906403 -0.15273698 -0.11653839 -0.99318624 3.4424684e-06 0
0.023356017 0.028007504 -0.15634659 -0.11653798 -0.99318624 7.6306016e-08 3.3004409e-07
0.034712669 0.026674945 -0.1555163 -0.25078994 -0.96782136 0.020643713 0.027570758
0.047091827 0.025222408 -0.15541652 -0.54601651 -0.83742827 0.024081374 0.080679744
0.054161474 0.023398172 -0.15557653 -0.87003034 -0.49296117 0.0060520489 0.081154823
-0.025672954 0.03329616 -0.15458253 0.43672732 -0.89957702 -0.0055177137 0.08026208
-0.01574765 0.032595824 -0.15548407 0.16308078 -0.98643935 -0.018494079 0.045421258
-0.0043713409 0.03126096 -0.15520394 -0.0033858006 -0.99990416 -0.013422095 0.012975566
0.0028093643 0.030418392 -0.1571614 -0.11295091 -0.99360067 0.00017724927 1.6076425e-05
-0.0040824288 -0.030269042 -0.14628239 0.1165379 0.99318624 2.1768735e-06 0
0.0065656169 -0.031518452 -0.14427754 0.11653838 0.99318618 -7.0792553e-06 5.5626754e-07
0.014924186 -0.032499224 -0.14524031 0.11653765 0.99318624 1.226249e-06 0
0.025528723 -0.033743534 -0.14290775 -0.064859919 0.99659592 0.050889906 0.024921481
0.03499759 -0.034854583 -0.14455436 -0.30549747 0.95214611 -0.0094423406 0.062795751
0.046650205 -0.034623154 -0.14492141 -0.63473362 0.77260345 0.01404126 0.068246551
-0.034740899 -0.025016345 -0.14544587 0.66902274 0.74217421 -0.039824866 0.078427844
-0.024582051 -0.027863672 -0.14335577 0.48361608 0.87515628 0.014727054 0.058918677
-0.015460583 -0.028933961 -0.14510721 0.28930616 0.95723593 -0.0011426031 0.031686906
-0.0085564386 -0.029744072 -0.14312097 0.13206972 0.99124032 -0.00034858173 0.00028374631
0.049445413 -0.025549352 -0.14501487 -0.7798475 0.62481147 -0.038060602 0.075260498
0.050059732 -0.020966135 -0.148259 -0.93407089 0.35637659 -0.022522055 0.04686049
-0.035377108 -0.016034955 -0.14489426 0.94318372 0.32942167 0.043425739 0.072047472
0.050783388 -0.013910832 -0.1431177 -0.96931994 0.24572277 0.0062549622 0.02315546
-0.034234636 -0.0061777355 -0.14438871 0.99312305 0.11707424 -0.00049071398 0.045720648
0.051788162 -0.0053901859 -0.1437851 -0.9927994 0.11939588 -0.0096952561 0.00035507724
-0.032925133 0.0049245073 -0.14435154 0.99116582 -0.13183115 0.014517441 0.00079388422
0.053013325 0.0050889286 -0.14356534 -0.99663585 -0.079291768 -0.020732243 0.041365087
-0.031808697 0.014490793 -0.14407414 0.9561134 -0.29171589 0.027367709 0.027451891
0.054290343 0.01540372 -0.14636862 -0.94285989 -0.33306977 -0.0089378068 0.079617448
-0.030711779 0.023914879 -0.1437397 0.77891648 -0.62262702 0.074998818 0.076886795
0.0077759712 0.029835625 -0.14510795 -0.11653801 -0.99318618 1.2244469e-06 0
0.014365025 0.029062482 -0.14582007 -0.11653811 -0.99318618 -9.2188355e-07 0
0.024549525 0.027867461 -0.14438479 -0.11653853 -0.99318618 2.511675e-08 0
0.035176437 0.026620526 -0.14757158 -0.28591457 -0.95821643 0.0086059384 0.03809591
0.043093033 0.025691614 -0.14371149 -0.42711288 -0.90380812 -0.026559811 0.063561395
0.054259714 0.023670753 -0.14514838 -0.85406023 -0.51819605 0.045318998 0.073849678
-0.026445247 0.032981306 -0.14583099 0.51276684 -0.85832578 -0.018625995 0.089724869
-0.015740875 0.032595031 -0.14584163 0.18380716 -0.98295188 -0.0045234929 0.053057745
-0.004873455 0.031319872 -0.14388277 -0.023655318 -0.99962699 0.013645784 0.012061309
0.0030074324 0.03039515 -0.1448379 -0.11190768 -0.9937185 0.00025686555 4.3345593e-05
-0.0031588119 -0.030377414 -0.13688096 0.11653798 0.99318624 -1.2859439e-07 3.0273014e-07
0.0054358924 -0.031385891 -0.13506338 0.11653783 0.99318624 3.3803569e-06 0
0.014373098 -0.03243456 -0.1357923 0.116538 0.99318624 1.0362107e-06 2.4490629e-07
0.024107369 -0.033576753 -0.13472754 -0.0015411035 0.99999881 0.00015882966 0.015343037
0.034194436 -0.034760345 -0.13487044 -0.26371557 0.96455771 -0.0090849958 0.052363869
0.046008583 -0.034163896 -0.13565189 -0.6784395 0.72985053 -0.083892502 0.064663552
-0.035716664 -0.024698041 -0.13602401 0.69207281 0.72143793 -0.023719167 0.078268953
-0.025299724 -0.027779456 -0.13492237 0.46479428 0.88502401 -0.02643346 0.057817593
-0.01693265 -0.028761225 -0.13687524 0.36271417 0.93189627 0.0028041787 0.042784538
-0.0083706984 -0.029765861 -0.1344793 0.13720152 0.99054295 0.00057234394 0.00042595496
0.049343672 -0.026181359 -0.13569966 -0.80247927 0.59497499 -0.045076497 0.062018346
-0.035463084 -0.014797513 -0.1344291 0.96194476 0.27057019 0.038132366 0.065618992
0.050551198 -0.01593666 -0.13484891 -0.96018124 0.27931231 -0.0060601751 0.025471697
-0.034308299 -0.0052790712 -0.13605163 0.99656892 0.082364462 0.0081584547 0.03962861
0.051777292 -0.0055357851 -0.13396065 -0.99274576 0.1202299 -0.00080682273 0.00052424421
-0.033103563 0.0052825799 -0.13457333 0.99108803 -0.13130824 0.022419252 0.00080518326
0.052983437 0.0047458615 -0.13400424 -0.99713677 -0.074491888 -0.013011066 0.043505061
-0.032164223 0.013143696 -0.13529797 0.96406138 -0.2648949 0.020408152 0.027682276
0.054161023 0.014842332 -0.1351161 -0.96364909 -0.26555523 0.02934183 0.063231476
-0.030582454 0.026780311 -0.13451432 0.70964479 -0.70278996 0.049904805 0.085806563
0.0090767602 0.029682994 -0.1392902 -0.11653809 -0.99318624 6.0055726e-07 0
0.014757052 0.029016489 -0.13327503 -0.11653802 -0.99318624 -3.1879656e-06 3.9609091e-07
0.025770424 0.027724206 -0.13556071 -0.11995208 -0.99277967 -0.00020184087 3.8155988e-05
0.036331184 0.02648503 -0.13476926 -0.32810462 -0.94452816 0.014623282 0.047592558
0.04568414 0.025387578 -0.13413794 -0.55322343 -0.83270961 0.02320699 0.077009954
0.054020122 0.023607407 -0.13386482 -0.71141654 -0.7015807 0.04087875 0.09168528
-0.026514215 0.033593427 -0.13467932 0.54517424 -0.83801508 0.02271045 0.10262888
-0.015056012 0.032514669 -0.1354661 0.20474976 -0.97678179 0.063046344 0.055782069
-0.004034529 0.031221436 -0.13562547 -0.047981471 -0.99880809 0.0089564417 0.0080319541
0.0025940402 0.030443659 -0.13522922 -0.11536402 -0.99332327 -5.0161816e-06 4.4048247e-06
-0.0034519278 -0.030343013 -0.12348797 0.1165383 0.99318618 2.9189209e-06 0
0.0041649868 -0.031236766 -0.1248648 0.11653808 0.99318624 -1.6187288e-06 0
0.01634443 -0.032665871 -0.1267821 0.11058111 0.99386704 -9.1193186e-05 0.00012408326
0.026249491 -0.03382811 -0.12427001 -0.034768902 0.99916989 0.021228364 0.023565523
0.032853469 -0.034603007 -0.12609325 -0.22584738 0.97379237 -0.026857706 0.058637876
0.045590427 -0.034648594 -0.12475163 -0.58045328 0.81366158 0.0320746 0.074391581
-0.034790907 -0.024896143 -0.12573425 0.64004028 0.76720768 -0.04172226 0.072034769
-0.024699209 -0.027849918 -0.12639467 0.47387728 0.88055849 0.0075566517 0.058800776
-0.014290554 -0.029071236 -0.12391855 0.23934226 0.97089493 0.0088449521 0.014382031
-0.007902924 -0.029820746 -0.12412318 0.12729295 0.99186516 -0.00015012632 0.00018483872
0.049542099 -0.025045786 -0.1255011 -0.80984408 0.58664513 0.00020142656 0.063885085
0.050054181 -0.020727836 -0.12465247 -0.90143341 0.43290961 0.002670618 0.05549952
-0.035665333 -0.014991697 -0.12674867 0.96620691 0.25773454 0.0041438951 0.070306003
0.050667234 -0.015512229 -0.12448482 -0.9575423 0.28802535 0.012413559 0.028469378
-0.034524821 -0.0048597772 -0.12467968 0.99944031 0.016335931 0.029192198 0.019075878
0.051861994 -0.0053403508 -0.12429592 -0.99238169 0.12264373 0.011707235 0.00059002452
-0.033200152 0.0064415769 -0.12461948 0.98889011 -0.14507422 0.032400627 0.0022411132
0.053042654 0.0048571439 -0.12678181 -0.9970926 -0.075750783 0.0082519855 0.040140387
-0.032333057 0.013938573 -0.12408105 0.96027732 -0.27427611 0.05138173 0.032213319
0.054302104 0.015509242 -0.12528709 -0.9468444 -0.31836599 -0.046138663 0.070648387
-0.031218534 0.023379209 -0.12437139 0.84296155 -0.53648728 0.039964657 0.092237212
0.0087605836 0.029720098 -0.12813896 -0.1165381 -0.99318624 2.2367497e-06 1.3004775e-07
0.014517962 0.029044542 -0.12469894 -0.11653797 -0.99318624 -1.4165632e-06 0
0.026273338 0.02766519 -0.12388472 -0.12248315 -0.99247032 0.00075989694 5.1802406e-05
0.036657233 0.026446771 -0.12729222 -0.32753208 -0.94483685 -0.0024621028 0.047812559
0.046187192 0.025328543 -0.12525497 -0.50025195 -0.86484593 0.042302653 0.071392775
0.054470509 0.023673894 -0.12730338 -0.76065809 -0.6481415 -0.03622061 0.083293214
-0.030212328 0.031783868 -0.1252284 0.72496384 -0.68837994 0.023675533 0.1018723
-0.024779398 0.033655591 -0.12384307 0.3843163 -0.91912657 0.086645849 0.091821022
-0.014460164 0.03244476 -0.12391516 0.1311944 -0.99058503 0.039106358 0.052701458
-0.0035414945 0.031163594 -0.12538205 -0.040063333 -0.99918759 0.0043727951 0.0083923154
0.0028935194 0.030408526 -0.12205768 -0.11653797 -0.99318624 3.7715097e-06 0
-0.0033566952 -0.030354192 -0.11473759 0.11653877 0.99318612 -2.645329e-06 9.7583177e-07
0.0049664429 -0.031330813 -0.11568583 0.1165381 0.99318624 -2.1365258e-06 2.1164132e-07
0.014164622 -0.032410104 -0.11398143 0.11653769 0.9931863 1.0971719e-06 2.7284017e-07
0.026105126 -0.033811182 -0.1143122 -0.092817023 0.99564087 0.0091760894 0.031015364
0.034857679 -0.034838185 -0.11577812 -0.33079004 0.94370419 -0.00060031773 0.05276284
0.045059904 -0.034927975 -0.11563139 -0.56955642 0.8219409 0.0043263636 0.061003353
-0.03365422 -0.025989607 -0.11419251 0.60575289 0.79524821 0.025372667 0.07165423
-0.025525529 -0.027752953 -0.11611999 0.47591531 0.87942326 -0.010920894 0.057393249
-0.014995256 -0.028988551 -0.11560981 0.23651762 0.97149861 -0.015810195 0.014745965
-0.0084190173 -0.029760191 -0.11475018 0.1310997 0.99136883 0.00085640996 0.00024042618
0.049677987 -0.024352228 -0.11697295 -0.81863362 0.57400703 -0.018836861 0.064783216
0.050154641 -0.020569621 -0.11183957 -0.90295386 0.42685577 0.049683835 0.062310874
-0.036234926 -0.017045101 -0.11268303 0.92345339 0.3816694 0.039527293 0.072406314
0.050775781 -0.015109004 -0.11490557 -0.95937353 0.28069255 0.028532168 0.025801526
-0.03479049 -0.0052890587 -0.11546557 0.99913996 0.033317853 0.024685467 0.022217013
0.051994376 -0.0046405508 -0.11643062 -0.9940688 0.10812145 0.011706954 0.00014836363
-0.033677563 0.0045955428 -0.11345804 0.99240547 -0.11787216 0.03517957 1.9185438e-05
0.053236108 0.0058577796 -0.11488491 -0.99433285 -0.10447816 0.0196619 0.046608988
-0.032467421 0.014403757 -0.11599464 0.95807785 -0.28557032 0.023163147 0.032322045
0.054370034 0.015529174 -0.11502405 -0.94974285 -0.30889046 0.050744861 0.073728383
-0.031167733 0.025892526 -0.11402645 0.80359393 -0.59199446 0.061475981 0.081505284
0.0090268645 0.029688848 -0.11628911 -0.11653872 -0.99318618 3.2917981e-06 0
0.014541751 0.029041745 -0.11620157 -0.11653838 -0.99318618 3.0113652e-06 0
0.026186088 0.02767542 -0.11361819 -0.12383143 -0.99230134 -0.0019272685 0.0001303201
0.03513616 0.026625242 -0.11475955 -0.23444188 -0.97204113 0.013154096 0.025964152
0.043708384 0.025619395 -0.11670539 -0.45348749 -0.8911652 0.013182053 0.066012368
0.05406028 0.023987867 -0.11571392 -0.70930254 -0.70434374 -0.028102292 0.093999304
-0.030316386 0.03265664 -0.11550736 0.69461673 -0.71455371 0.083188988 0.10228015
-0.025041169 0.03368631 -0.11468074 0.39283255 -0.91664618 0.073772557 0.096172452
-0.014333245 0.03242987 -0.11556426 0.12481032 -0.99213767 0.0092336033 0.051919751
-0.0043810359 0.0312621 -0.11552903 -0.048772823 -0.99874884 0.011051148 0.0087866802
0.0030288547 0.030392639 -0.11547487 -0.11653796 -0.99318624 -4.8051584e-07 0
-0.0045005805 -0.030219972 -0.10648265 0.11653817 0.99318624 5.6831323e-07 2.0932951e-07
0.004782598 -0.031309243 -0.10689984 0.1165378 0.9931863 -5.106102e-06 3.9901701e-07
0.014759238 -0.032479879 -0.10528344 0.11653823 0.99318624 -1.5629909e-06 0
0.025245937 -0.033710368 -0.10725191 -0.067476191 0.99766487 -0.010570103 0.029591404
0.035373531 -0.034898713 -0.1042581 -0.28056672 0.95796031 0.059953142 0.060335815
0.046903364 -0.0349021 -0.10415927 -0.57487404 0.811391 0.10566247 0.057398017
-0.0348056 -0.02547838 -0.10507295 0.66227061 0.74573231 0.072670333 0.070251718
-0.02427347 -0.027899861 -0.10502422 0.43387589 0.90082455 0.016339336 0.051445391
-0.015116926 -0.028974274 -0.10510236 0.28008705 0.95996928 0.0032009857 0.025379015
-0.0086103054 -0.029737748 -0.10224487 0.13070612 0.99142075 -0.00086356112 0.00021690076
0.049646743 -0.026814442 -0.10371178 -0.78260809 0.61558247 0.092643313 0.071581639
0.050171837 -0.02114369 -0.10766821 -0.90840924 0.41184223 0.071963027 0.061681211
-0.036278315 -0.014485733 -0.10467157 0.95608127 0.29271457 0.015060732 0.069722563
0.051029254 -0.014513206 -0.10529367 -0.96318865 0.26646426 0.035560537 0.026582759
-0.035474773 -0.007519545 -0.10439057 0.98653138 0.15610026 0.048873693 0.056500126
0.052186996 -0.0048149847 -0.10473915 -0.9931888 0.11383493 0.024852557 7.3192787e-05
-0.03375005 0.0068428093 -0.10519129 0.9877128 -0.14957359 0.045289498 0.0033989581
0.053428501 0.0049448744 -0.10233246 -0.99380356 -0.1047922 0.037054613 0.044815894
-0.032961179 0.014586938 -0.10276151 0.96091217 -0.26985386 0.061860546 0.034914743
0.054542195 0.01582949 -0.10646143 -0.93643641 -0.34965304 -0.028801989 0.064392276
-0.031778123 0.023598637 -0.10530975 0.80205494 -0.59705824 0.015145582 0.089985207
0.0098638721 0.029590629 -0.1086615 -0.11653799 -0.99318618 -3.8109999e-06 6.1655317e-07
0.014889261 0.029000966 -0.10350474 -0.11653819 -0.99318618 -2.5118763e-06 5.9559443e-07
0.024792658 0.027838917 -0.1054045 -0.11653766 -0.9931863 -1.3815798e-06 7.4380517e-07
0.036092352 0.026513038 -0.10525862 -0.31475046 -0.94917244 0.0019767401 0.04271096
0.046258178 0.025320204 -0.10365498 -0.49319193 -0.86957294 -0.024588911 0.058762815
0.054719608 0.022800731 -0.10670274 -0.82371348 -0.56679523 -0.015468125 0.080723971
-0.030702537 0.032569334 -0.105776 0.70373136 -0.70974231 0.032064401 0.10141176
-0.025532288 0.033743944 -0.10321447 0.44716862 -0.89012295 0.087872058 0.086186253
-0.015021632 0.032510646 -0.10468458 0.12637727 -0.99165165 0.025607204 0.05170222
-0.0043688505 0.031260666 -0.10557531 -0.049222838 -0.99878335 0.0029937869 0.0088685481
0.0040900344 0.030268123 -0.10434479 -0.11653836 -0.99318618 -1.7453053e-07 3.5422582e-07
-0.0041719275 -0.030258533 -0.094795011 0.11653823 0.99318624 -1.1934337e-06 5.5737826e-07
0.0073949508 -0.031615764 -0.095075317 0.11653827 0.99318624 -5.1033153e-06 0
0.015641525 -0.032583401 -0.095668517 0.11264107 0.99363571 -0.00039949015 5.6098692e-05
0.025495289 -0.033739615 -0.09474308 -0.016306663 0.99986273 -0.0029510681 0.015340541
0.033724565 -0.034705225 -0.095433414 -0.25817144 0.96340793 0.072059892 0.055163145
0.045159437 -0.035093382 -0.093481906 -0.54116726 0.83120102 0.12744714 0.071894579
-0.036806598 -0.024655899 -0.09384656 0.77412784 0.63113767 0.048901547 0.082703292
-0.025886089 -0.027710639 -0.093727916 0.44322732 0.89586711 0.031170022 0.054769475
-0.016356466 -0.028828824 -0.096462741 0.29883242 0.95389318 0.028055523 0.025793225
-0.0068952329 -0.029938987 -0.094180971 0.11653825 0.99318618 -1.3802246e-07 2.5788904e-07
0.049730666 -0.02838058 -0.097021818 -0.75501233 0.65393877 0.048171058 0.073993057
0.050326157 -0.024103807 -0.094681039 -0.85057878 0.51950115 0.081450731 0.078090496
-0.036931541 -0.015936274 -0.094875254 0.9326064 0.35570046 0.061012264 0.072038561
0.051424526 -0.014350805 -0.09583123 -0.96709311 0.25331578 0.023708282 0.026990486
-0.035625622 -0.0051376466 -0.095662922 0.9976818 0.046664029 0.049532879 0.024360219
0.052369673 -0.0064345216 -0.09542463 -0.99092442 0.13018173 0.033487517 0.00096299784
-0.034408484 0.0056334133 -0.094715543 0.98976356 -0.1354581 0.044936225 0.0021736969
0.053748015 0.0053020334 -0.095394701 -0.99258333 -0.105049 0.061181661 0.051527135
-0.033165559 0.016026247 -0.095191218 0.95509946 -0.29377827 0.038461771 0.036637411
0.054979697 0.015306995 -0.09395197 -0.95335454 -0.30007395 0.032722641 0.074127577
-0.03219698 0.024932118 -0.093641303 0.84541565 -0.53138 0.053923354 0.075809062
0.0077344677 0.029840499 -0.094141282 -0.11653835 -0.99318624 -1.4045704e-08 0
0.013653344 0.029145988 -0.093915634 -0.11653818 -0.99318618 -1.5913129e-06 0
0.023880225 0.02794599 -0.094558373 -0.11653868 -0.99318612 2.9429298e-06 0
0.035326052 0.026602963 -0.094395988 -0.30774611 -0.95138586 -0.012543532 0.049065642
0.045364987 0.025425017 -0.095127583 -0.48976505 -0.87131166 0.030761359 0.066845112
0.054960992 0.023397505 -0.093120866 -0.82232094 -0.56725419 0.044842642 0.06997896
-0.031379677 0.031735156 -0.094027765 0.74601448 -0.65643978 0.11202304 0.087910742
-0.025266444 0.033712752 -0.094617605 0.4008145 -0.9160682 0.012913857 0.092628926
-0.014258683 0.032421127 -0.095642902 0.10154378 -0.99481672 -0.0053368388 0.045703653
-0.0052353223 0.031362344 -0.094958231 -0.035013698 -0.99937898 0.0039487723 0.010667407
0.0043201647 0.030241124 -0.096675962 -0.11653793 -0.9931863 3.1773618e-06 0
-0.0041259448 -0.030263921 -0.081281424 0.11653839 0.99318618 -1.3528926e-06 2.2765704e-07
0.0050416724 -0.031339627 -0.084181376 0.11653791 0.99318624 4.0562836e-06 0
0.015066341 -0.032515902 -0.085159943 0.11653824 0.99318624 1.938751e-06 0
0.028409025 -0.034081504 -0.08794377 -0.097379021 0.99521083 0.0085270684 0.032540563
0.033824388 -0.03471693 -0.083431907 -0.19259357 0.97973865 0.054953951 0.05457215
0.046962731 -0.035113182 -0.084225051 -0.54153138 0.8365944 0.082787074 0.072572537
0.050076526 -0.030468013 -0.082257017 -0.7706514 0.6249572 0.12459914 0.075029373
-0.035603039 -0.025610236 -0.085766621 0.7588045 0.65041518 0.034289539 0.086680956
-0.02399976 -0.027931973 -0.084231593 0.4197714 0.90605479 0.053446859 0.056406323
-0.015030353 -0.02898442 -0.08455833 0.22800156 0.97366029 0.00091053254 0.013997228
-0.0082552545 -0.029779399 -0.085672475 0.12602969 0.99202609 -0.0008409752 0.00010417137
0.049969241 -0.02983528 -0.086793676 -0.78254253 0.6219151 0.029134193 0.081255153
0.050477393 -0.025896877 -0.085643321 -0.81594372 0.57566667 0.053327408 0.079796545
-0.037386455 -0.015462783 -0.084522247 0.91783595 0.39605248 0.026825063 0.081733324
0.051621247 -0.016028427 -0.085995562 -0.94483358 0.32441741 0.045198034 0.046943206
-0.036122501 -0.0050350195 -0.085341349 0.99847549 0.044905372 0.032096453 0.024954241
0.052987594 -0.0043501183 -0.086094394 -0.99380165 0.10061153 0.047281489 0.00083154347
-0.035000101 0.0042276867 -0.086062022 0.9933027 -0.10180776 0.054633744 0.00055514218
0.054125469 0.0053647892 -0.086145595 -0.98814684 -0.13658477 0.070074677 0.048760053
-0.033500567 0.017093152 -0.085857734 0.94494396 -0.3267476 0.017806396 0.048041545
0.055245601 0.014330819 -0.084444292 -0.94921106 -0.31380197 0.022951031 0.070244119
-0.032500897 0.025509577 -0.086103357 0.81146169 -0.58064079 0.066228874 0.081116401
0.0076578818 0.029849492 -0.083527349 -0.11653825 -0.99318624 7.8609781e-07 6.5521796e-08
0.01518431 0.028966356 -0.087035261 -0.11653782 -0.99318624 1.6491998e-06 0
0.023154322 0.028031174 -0.084832191 -0.11941857 -0.99284381 -0.00056381838 2.9562429e-05
0.0381262 0.026274405 -0.085355639 -0.36531633 -0.93081397 0.011376397 0.047359504
0.045234911 0.025440285 -0.085823059 -0.48843786 -0.87087715 0.054785158 0.064310499
0.052740563 0.023845222 -0.083868153 -0.67779028 -0.73352247 0.050449736 0.086092331
-0.031453565 0.033211425 -0.088612333 0.6656391 -0.74625754 -0.0049264836 0.10169093
-0.026209733 0.033823442 -0.08391194 0.34347361 -0.93889189 0.022538915 0.071177289
-0.015477472 0.032564141 -0.085022874 0.12029424 -0.99248552 0.022402739 0.048155535
-0.0022257434 0.031009214 -0.084511064 -0.11185151 -0.99372417 0.0012141535 8.0830767e-05
0.0027274352 0.03042802 -0.084065631 -0.11653829 -0.99318618 -1.3110916e-06 5.2399696e-07
-0.0025478934 -0.030449079 -0.076916009 0.11653831 0.99318618 -4.7553024e-07 0
0.0053128372 -0.031371441 -0.074644171 0.11653797 0.99318624 -1.2578174e-06 0
0.012993777 -0.032272704 -0.075491607 0.11653835 0.99318624 2.7225963e-06 0
0.025177628 -0.033702333 -0.075266674 0.010715955 0.99938416 0.033412799 0.014122626
0.035335299 -0.034894209 -0.073199272 -0.22704886 0.97294205 0.042807415 0.053855553
0.045844957 -0.035861555 -0.075024039 -0.41558531 0.90947485 0.012014658 0.067894705
0.050279472 -0.031822551 -0.074329361 -0.72985613 0.68130171 0.056018811 0.086666159
-0.035382465 -0.025497057 -0.07583683 0.57607281 0.81431872 0.070887424 0.075570188
-0.025301449 -0.027779233 -0.075992204 0.42706284 0.903216 0.04264072 0.057123244
-0.01505545 -0.028981471 -0.076341853 0.22189422 0.97506088 0.0043762196 0.015628913
-0.0069858218 -0.029928345 -0.077215172 0.1219484 0.99253649 -0.00013092792 6.7971021e-05
0.051175226 -0.023856668 -0.074969098 -0.87399536 0.48269066 0.056052238 0.07408613
-0.037764814 -0.01419095 -0.074543156 0.93829542 0.31926692 0.13292953 0.082927503
0.052210685 -0.015149628 -0.075108312 -0.96473873 0.25740063 0.054992281 0.030717932
-0.036541656 -0.0042337156 -0.075372554 0.9962185 0.026788712 0.082650013 0.026992327
0.053395916 -0.0052639898 -0.074589685 -0.99283296 0.10606193 0.055078976 0.00047186864
-0.035567962 0.0047136149 -0.074294649 0.99112833 -0.1170643 0.062932812 2.1855632e-05
0.054475527 0.0043571056 -0.075373538 -0.99073678 -0.11959856 0.06431894 0.043875311
-0.034393176 0.014362065 -0.074948221 0.95532316 -0.29461965 0.023598623 0.041019596
0.055652112 0.014040984 -0.074960276 -0.96059102 -0.27522472 0.038939737 0.066243298
-0.033055753 0.025063097 -0.076170005 0.8546524 -0.51915085 0.0071810838 0.078381464
0.0081518982 0.02979153 -0.075577855 -0.11653775 -0.9931863 1.2688339e-07 0
0.015062 0.028980715 -0.073648892 -0.11653825 -0.9931863 9.873628e-08 0
0.025563752 0.027748464 -0.075083658 -0.12087405 -0.99266756 0.00071248313 4.3968499e-05
0.035198066 0.026617991 -0.076200739 -0.25098437 -0.96798313 -0.0039461451 0.027750676
0.044670396 0.025506532 -0.075023398 -0.41022903 -0.91193801 0.009016864 0.055361018
0.054317325 0.023762075 -0.074116774 -0.73803151 -0.67052072 0.075573646 0.087698713
-0.032060657 0.033352066 -0.076035656 0.61501253 -0.78571296 -0.066443175 0.087451681
-0.023903709 0.033552866 -0.073260069 0.24272083 -0.9696551 0.029249994 0.064692013
-0.014325108 0.032428931 -0.075483881 0.09527275 -0.99541128 -0.0089150015 0.043038052
-0.0052271993 0.031361405 -0.073600784 -0.077967077 -0.99694771 0.0040409616 0.0044374214
0.0028480769 0.03041387 -0.073565006 -0.11653817 -0.99318618 -8.6353373e-07 0
-0.0036292572 -0.030322196 -0.064283594 0.11653835 0.99318624 -5.1937371e-07 3.1218249e-07
0.0044299667 -0.031267848 -0.062851347 0.11653823 0.99318624 -2.762948e-07 7.346589e-07
0.016395161 -0.032671817 -0.064813867 0.1165383 0.99318624 9.0973748e-07 0
0.024595665 -0.033634044 -0.065044872 0.049834929 0.99870986 0.009755264 0.0095174257
0.035498392 -0.034913346 -0.065498613 -0.18058237 0.98350877 0.01002792 0.05085887
0.044622824 -0.035983987 -0.064716928 -0.43243772 0.90160811 -0.01001753 0.079406455
0.050690074 -0.033785388 -0.06496866 -0.70633894 0.70734489 0.02736011 0.092332713
-0.040089194 -0.025458246 -0.060875423 0.66554618 0.74312264 0.069404475 0.07108058
-0.036971636 -0.02571889 -0.066492468 0.65536869 0.75379008 0.047878355 0.076218702
-0.024170997 -0.027911879 -0.064380817 0.39533484 0.91823256 0.02365108 0.050547019
-0.014884346 -0.029001554 -0.062451854 0.23530897 0.97171068 0.02020254 0.015616228
-0.0080462173 -0.029803921 -0.067581609 0.12451524 0.99221677 0.0013699074 8.4949439e-05
0.05192465 -0.023939481 -0.06424427 -0.88099259 0.47243908 0.025563018 0.082053669
-0.038158342 -0.014061985 -0.068757854 0.9661268 0.22921745 0.11856781 0.072288178
0.05268636 -0.017025722 -0.064916141 -0.95900673 0.28081843 0.038041063 0.036331635
-0.037499052 -0.0057777814 -0.064604983 0.9931187 0.051856641 0.10500523 0.032600831
0.054068271 -0.0055833585 -0.064383291 -0.99193728 0.10748006 0.067144781 0.00039735547
-0.036317356 0.0049257348 -0.063619405 0.99012142 -0.12162444 0.069764569 5.4605574e-05
0.055441789 0.0053726276 -0.063190095 -0.99232763 -0.11083112 0.05479252 0.042113386
-0.035085183 0.014281155 -0.065404333 0.94380105 -0.32396659 0.065462202 0.044251911
0.056193698 0.014245413 -0.067112789 -0.92462826 -0.38020411 0.022524633 0.069175422
-0.033901237 0.024603631 -0.065042242 0.81560653 -0.57822138 -0.021115789 0.081729583
0.0086118737 0.029737556 -0.066079862 -0.11653783 -0.9931863 -5.6647315e-07 4.9072878e-07
0.016000422 0.028870603 -0.064314604 -0.11653797 -0.99318624 -3.2811741e-07 4.8694432e-07
0.024848929 0.027832339 -0.064214453 -0.11653813 -0.99318624 -5.103463e-07 1.4801184e-07
0.035239406 0.02661314 -0.063789852 -0.23826107 -0.97119814 -0.0024518908 0.027554547
0.045450766 0.025414966 -0.064155765 -0.42567128 -0.90484518 0.0077037192 0.064498231
0.055005662 0.02377836 -0.066584378 -0.79233313 -0.60986024 -0.016692255 0.074024469
-0.032223221 0.033395872 -0.064202115 0.59728104 -0.80193585 -0.012413477 0.10173889
-0.024841009 0.033662841 -0.065958455 0.22065099 -0.97534394 -0.0041693165 0.063674733
-0.013789169 0.032366045 -0.064584099 0.10087599 -0.99483144 0.011595584 0.046296462
-0.0053621042 0.03137723 -0.064486876 -0.072242901 -0.99738657 -0.00094022317 0.005845869
0.002563833 0.030447219 -0.06545575 -0.11653849 -0.99318618 -2.5496963e-06 5.778366e-07
-0.0033518753 -0.030354749 -0.054387163 0.116538 0.99318624 -1.9992385e-07 4.0079257e-07
0.0057945112 -0.031427961 -0.055254139 0.11653838 0.99318618 -1.2036962e-06 8.659751e-07
0.014821425 -0.032487158 -0.055430155 0.11653826 0.99318624 -5.868749e-08 0
0.025059057 -0.033688419 -0.056184344 0.038939621 0.9991762 0.011425032 0.014393173
0.035413142 -0.034903344 -0.05532584 -0.20178223 0.9794172 -0.0050916737 0.067794189
0.046113055 -0.036158849 -0.054052811 -0.38301119 0.9210248 0.070822388 0.069142468
0.051331773 -0.033782169 -0.054858271 -0.74464321 0.66653144 0.035247754 0.095823549
-0.040366374 -0.024683923 -0.054748207 0.75227958 0.65164375 0.097138271 0.081590995
-0.035219513 -0.026090845 -0.05542272 0.54584086 0.83334649 0.087128527 0.08214929
-0.026061038 -0.027690111 -0.055880465 0.41532344 0.9095543 0.014741139 0.057486102
-0.014205843 -0.029081173 -0.055180375 0.1770177 0.98420769 -0.00018460021 0.007229792
-0.0085160257 -0.029748797 -0.056245346 0.11866691 0.99293411 -8.1228609e-05 1.5828035e-05
0.052573655 -0.024770953 -0.054118112 -0.85519606 0.51830274 0.0014100667 0.086241417
-0.040011115 -0.019525029 -0.05266808 0.89779907 0.4229981 0.12259413 0.091105461
-0.039325681 -0.014259862 -0.053566102 0.93310553 0.33306456 0.13558091 0.084728964
0.053838756 -0.013881439 -0.054289594 -0.96227062 0.26541036 0.059938416 0.031804666
-0.038244478 -0.005902248 -0.054901123 0.99363601 0.056865077 0.097230345 0.033700045
0.054573603 -0.0069799572 -0.055306423 -0.99018914 0.1178686 0.075048909 1.4621221e-05
-0.037000254 0.0061218375 -0.052688196 0.98941189 -0.12048695 0.080913208 4.7264028e-05
0.055859029 0.0041487808 -0.055583037 -0.99542516 -0.021439249 0.093107641 0.022640003
-0.035810091 0.014465207 -0.055492122 0.94665426 -0.31252033 0.078591861 0.048694745
0.057475567 0.01688589 -0.053928263 -0.90682745 -0.4030717 0.12327685 0.082664356
-0.034377765 0.025862837 -0.056752909 0.85473812 -0.51487786 0.065753914 0.064845718
0.0084286351 0.029759049 -0.05255343 -0.11653796 -0.9931863 -2.3553901e-06 1.1376468e-06
0.01498508 0.028989734 -0.054949574 -0.11653806 -0.99318624 -2.2057454e-06 4.7609819e-07
0.023823315 0.027952677 -0.054732885 -0.11653844 -0.99318624 1.7536956e-06 0
0.034590721 0.026689256 -0.055868518 -0.18692517 -0.9823733 -0.001342797 0.0086890189
0.046033282 0.025346611 -0.05585118 -0.49089119 -0.8712166 0.0027333675 0.058421083
0.055094987 0.02368078 -0.054590862 -0.71339643 -0.69697434 0.072748341 0.05490651
-0.033260372 0.03290524 -0.05395462 0.64591843 -0.75628322 0.10404372 0.093295075
-0.02294698 0.03344059 -0.055481713 0.2416448 -0.97024876 0.015001655 0.071553499
-0.016292153 0.032659728 -0.055890165 0.12423864 -0.99204397 -0.020334719 0.052886713
-0.0046408791 0.031292595 -0.054736093 -0.10625953 -0.99433815 0.00080474303 0.00020530511
0.0033390878 0.030356249 -0.056361686 -0.11653835 -0.99318618 -1.6761397e-06 9.971975e-07
-0.0036416249 -0.030320754 -0.047646128 0.11653811 0.9931863 5.2550297e-07 0
0.0027828719 -0.031074595 -0.042138692 0.11653814 0.99318624 3.9610157e-08 5.3584148e-07
0.016754685 -0.032714009 -0.046008162 0.11653852 0.99318618 2.05004e-07 0
0.025102537 -0.033693526 -0.046789236 0.037339866 0.99927109 -0.0079431375 0.013086539
0.035009179 -0.034855947 -0.04454815 -0.16514498 0.98499125 0.050194483 0.057948045
0.044284716 -0.03594432 -0.043085925 -0.33152741 0.93946737 0.086548075 0.073366255
0.051808923 -0.034804974 -0.045472272 -0.68614125 0.72672683 0.032836553 0.1007356
-0.041075069 -0.022257792 -0.042798508 0.88559979 0.46147287 0.052495677 0.084864795
-0.034542833 -0.026694885 -0.046286073 0.53107369 0.84731865 -0.003431601 0.080567919
-0.024424719 -0.027882122 -0.045100905 0.35923827 0.93322408 0.0063840342 0.049509749
-0.015324414 -0.028949928 -0.044512779 0.22431327 0.9743883 0.015842305 0.01630749
-0.0075219129 -0.029865453 -0.044941735 0.11864661 0.99293602 0.001048669 1.9724868e-05
0.053367857 -0.024283187 -0.044238519 -0.87126881 0.48327139 0.085669875 0.072185248
-0.040197954 -0.014828437 -0.042869832 0.95056397 0.2991434 0.083314598 0.086456165
-0.039690476 -0.012946744 -0.046676498 0.97842193 0.19032466 0.08041741 0.07073871
0.054332543 -0.015107968 -0.045639969 -0.94805408 0.31110182 0.066400155 0.039628249
-0.038874645 -0.005260509 -0.045533791 0.99685496 0.046009108 0.064523503 0.034772012
0.055445425 -0.0058138026 -0.045383535 -0.9905414 0.10681819 0.086125344 0.00073523866
-0.037745249 0.0047793379 -0.044887744 0.98963475 -0.11599595 0.084663287 3.9088514e-05
0.056584843 0.0040945974 -0.045679562 -0.99437076 -0.039346091 0.09837997 0.026257053
-0.036650971 0.014350048 -0.044506248 0.95149708 -0.29196706 0.096997321 0.033970553
0.058319729 0.016507758 -0.041988313 -0.89317805 -0.4357821 0.11102699 0.076600261
-0.035371378 0.024324115 -0.045957021 0.84062529 -0.53393942 0.090873018 0.087820321
0.007504737 0.029867455 -0.047786668 -0.11653782 -0.99318624 -1.0054447e-06 0
0.014645163 0.029029615 -0.045399606 -0.11653801 -0.9931863 4.9680551e-07 0
0.025266567 0.027783321 -0.04477746 -0.11653747 -0.9931863 -6.3986477e-07 4.1454658e-07
0.03480912 0.026663624 -0.045797035 -0.17827141 -0.98397261 -0.0041528922 0.0069686254
0.044352055 0.02554388 -0.045485288 -0.39827302 -0.91471481 0.068377703 0.052704819
0.055600084 0.023615919 -0.045215119 -0.72772944 -0.68410188 0.049136676 0.086444817
-0.034416478 0.032643788 -0.045674056 0.69800931 -0.71530205 0.033557277 0.087235004
-0.025768671 0.033771671 -0.046131834 0.28563359 -0.95788205 0.029586952 0.070926376
-0.014050477 0.032396693 -0.046018515 0.071385182 -0.99742013 0.0075752777 0.037022647
-0.0066656647 0.031530172 -0.044568736 -0.067018338 -0.99775177 0.00010955334 0.0057857623
0.0029743321 0.030399041 -0.046586916 -0.11653807 -0.99318624 -2.8787997e-07 6.6763369e-07
-0.0024721087 -0.030457992 -0.03628559 0.11653816 0.99318618 -3.2877904e-07 6.7513628e-07
0.0048520132 -0.031317383 -0.035837121 0.11653813 0.99318618 -6.2865934e-07 5.3010223e-07
0.012338243 -0.032195799 -0.036496595 0.11653864 0.99318618 1.0996597e-07 7.7170705e-07
0.024932219 -0.033673547 -0.036574524 0.062349606 0.99804467 -0.0044083167 0.006530981
0.034547996 -0.034801837 -0.035435878 -0.12798835 0.98919284 0.071530327 0.056713212
0.044668082 -0.035989303 -0.034205794 -0.38691309 0.92148709 0.034056496 0.085409328
0.052760977 -0.033876929 -0.035330541 -0.67865521 0.72910428 0.088509262 0.10393972
-0.041614786 -0.023484461 -0.036236424 0.84644592 0.5323925 0.0093563003 0.095520154
-0.035182167 -0.026619876 -0.034952279 0.55691004 0.83036149 0.018736295 0.084867597
-0.025838487 -0.027716236 -0.035062358 0.39519355 0.91849786 0.013555503 0.05567224
-0.016258793 -0.02884029 -0.034773663 0.20337085 0.97902691 0.012108952 0.012257298
-0.0078394385 -0.0298282 -0.033382725 0.1165382 0.99318624 -5.4653151e-07 1.2485631e-07
0.053898748 -0.026319878 -0.036026489 -0.83742535 0.54353744 0.057321634 0.077041082
-0.040716566 -0.014562169 -0.036505241 0.957748 0.28759319 0.0029719225 0.068733402
0.055486418 -0.014223131 -0.034462672 -0.96647334 0.23806651 0.096195623 0.023545226
-0.040245522 -0.0071310229 -0.032523211 0.99349409 0.087716669 0.072630987 0.038303718
-0.039581515 -0.0030248458 -0.03435611 0.99669433 -0.011189971 0.08046864 0.020111257
0.056522202 -0.0046976004 -0.035224054 -0.99007624 0.10276883 0.095852032 0.0013263321
-0.038559765 0.0040290072 -0.036242034 0.98945439 -0.11363509 0.089816555 2.3761617e-05
0.057732292 0.0062921052 -0.035962004 -0.98712826 -0.10826545 0.11771298 0.035488993
-0.037236184 0.016414581 -0.034954272 0.93511885 -0.3503989 0.052662332 0.048974235
0.059286505 0.016594825 -0.03275292 -0.89492017 -0.41713786 0.15847345 0.079098701
-0.03658206 0.023483567 -0.033226199 0.86377358 -0.50021201 0.060689159 0.064770982
0.00738985 0.029880932 -0.03605707 -0.11653772 -0.9931863 -1.0880842e-06 5.9269831e-07
0.01526125 0.02895732 -0.034023918 -0.11653757 -0.9931863 -5.2456676e-07 5.2469119e-07
0.025227427 0.027787914 -0.034872923 -0.11653747 -0.9931863 -4.8068097e-07 1.7841334e-07
0.033794809 0.026782637 -0.033479989 -0.19622537 -0.98054308 0.0055518192 0.0088478643
0.044306569 0.025549214 -0.034043971 -0.3531844 -0.93450981 0.044183776 0.051259503
0.055221558 0.023968125 -0.034864448 -0.7093004 -0.69541162 0.11530637 0.085730478
-0.033275958 0.033763185 -0.035233453 0.47246867 -0.88131487 -0.0075727128 0.076721668
-0.024610799 0.033635806 -0.034742262 0.25156748 -0.96751153 0.025205769 0.062996894
-0.014307627 0.032426856 -0.034696016 0.013370492 -0.9998939 -0.005784974 0.024310842
-0.0051505989 0.031352393 -0.035234552 -0.110714 -0.9938516 -0.0011850756 6.3162835e-05
0.0025389995 0.030450117 -0.034072794 -0.116538 -0.9931863 -4.8669619e-07 2.8487591e-07
-0.0031842382 -0.03037443 -0.025074542 0.11653802 0.99318624 3.0304088e-07 6.5630775e-07
0.0047309548 -0.031303179 -0.025335947 0.11653809 0.99318624 -2.1879394e-07 0
0.015339117 -0.032547917 -0.024743389 0.11653741 0.9931863 8.744351e-07 0
0.024382165 -0.033609003 -0.025747145 0.09989427 0.99497837 0.0062559559 0.00071988499
0.035672318 -0.034933764 -0.025223672 -0.096466035 0.9947893 0.032993916 0.043905254
0.046108957 -0.036158372 -0.025173565 -0.40874913 0.91238546 -0.021837553 0.08233735
0.052663215 -0.034986667 -0.025800314 -0.52061778 0.85358161 -0.018856352 0.085742086
-0.042620495 -0.023198526 -0.025366502 0.82658422 0.5626936 0.011592282 0.091484718
-0.034534428 -0.026695877 -0.025411587 0.58918113 0.80577558 0.059928004 0.088243581
-0.025747746 -0.027726885 -0.024111304 0.34905398 0.93610197 0.043294244 0.040908422
-0.014850447 -0.029005548 -0.025625909 0.13414995 0.99095714 0.0027674772 0.0006096898
-0.008367979 -0.029766181 -0.02608862 0.11653767 0.9931863 3.6938016e-07 0
0.055443238 -0.024132874 -0.024057597 -0.90530777 0.41912496 0.068935223 0.055954654
-0.041957252 -0.015343386 -0.025146728 0.97422022 0.22366124 0.02950825 0.054668069
0.056433596 -0.01427497 -0.025603544 -0.96713048 0.23275739 0.10238459 0.020486871
-0.040727012 -0.005405745 -0.025779583 0.99460799 0.092042208 0.047782369 0.03642565
-0.039985061 -0.0014117928 -0.028474443 0.99644792 -0.043292426 0.072230659 0.0094493544
0.0578629 -0.0046970453 -0.022764774 -0.98898 0.095838197 0.11284358 0.0018067717
-0.039511632 0.0049186894 -0.025818359 0.98695481 -0.12695286 0.099010721 0.00056865637
0.05853137 0.0032733087 -0.025243837 -0.99165374 -0.043724462 0.12128878 0.031559117
-0.038522188 0.014097273 -0.024955133 0.96454114 -0.23815368 0.1137684 0.01792716
0.059546135 0.014638026 -0.02820614 -0.95245808 -0.28162903 0.11622661 0.076185159
0.060363535 0.017257448 -0.023466019 -0.86191452 -0.47746888 0.17066593 0.095656246
-0.037133709 0.025581265 -0.025359143 0.86924613 -0.48405889 0.10048969 0.060404327
0.0083679128 0.029766168 -0.026753046 -0.116538 -0.99318624 3.3376716e-07 2.4878003e-07
0.014101542 0.0290934 -0.026537905 -0.11653769 -0.9931863 -4.0703395e-07 8.1363379e-07
0.023090364 0.028038669 -0.026665205 -0.11653774 -0.99318624 -3.354647e-07 2.4432319e-07
0.035090089 0.026630653 -0.025209952 -0.17226182 -0.98488033 0.01834663 0.0073432564
0.046791382 0.025257653 -0.026017623 -0.39766607 -0.91748643 0.0089685842 0.06027808
0.055421162 0.024245057 -0.02487121 -0.71004522 -0.70294023 0.041362315 0.094571762
0.06082854 0.022483006 -0.024842843 -0.84847027 -0.52129143 0.091397487 0.10315593
-0.033188876 0.033925932 -0.02515468 0.52931988 -0.84835893 0.010369691 0.088950112
-0.024933154 0.033673629 -0.025390381 0.24650517 -0.96911865 -0.0066531952 0.06540522
-0.013972656 0.032387551 -0.024824124 0.021515569 -0.99951571 0.0224852 0.027640095
-0.0037600442 0.031189233 -0.027493834 -0.1132802 -0.993563 -0.00031110513 2.8145487e-05
0.0034813944 0.030339539 -0.02455901 -0.11653791 -0.9931863 -3.7074145e-08 0
0.008335798 -0.031726163 -0.016456114 0.11653852 0.99318612 -5.2985013e-07 1.3575821e-06
0.016258428 -0.032655783 -0.017724676 0.11653799 0.99318624 3.983692e-07 0
0.024847141 -0.03366356 -0.01598548 0.10418717 0.99455494 0.0023397217 0.00031773152
0.035595555 -0.034924753 -0.014875147 -0.097239129 0.99522167 -0.0088539626 0.041981712
0.0470693 -0.036271054 -0.015106791 -0.46871254 0.88330001 0.0094653619 0.074503653
0.054045696 -0.035805214 -0.015050943 -0.60246962 0.79560071 0.063638218 0.082458958
-0.043528885 -0.023343166 -0.014386822 0.85256928 0.5151006 0.088300772 0.076388896
-0.033770256 -0.026785547 -0.015773723 0.52543628 0.84951395 0.047357555 0.078162707
-0.025626004 -0.027741171 -0.015173598 0.3536841 0.93470132 0.035227589 0.048368301
-0.01557274 -0.028920798 -0.015858216 0.1349432 0.9908514 0.001954936 0.00059089827
0.056446768 -0.024225162 -0.01463051 -0.91362453 0.39358944 0.10187041 0.052642211
-0.042805947 -0.014293661 -0.01556405 0.97557551 0.21708322 0.033574864 0.056811966
0.057425559 -0.014834704 -0.015774202 -0.95995814 0.26045555 0.10316619 0.027959052
-0.041766629 -0.0038471888 -0.013725621 0.99529874 0.047242619 0.084548905 0.034523051
0.058436736 -0.0058599515 -0.016163612 -0.98717558 0.11233202 0.11342783 7.1268441e-05
-0.040395074 0.0055954428 -0.016324542 0.98728782 -0.12171468 0.10221671 0.00033261065
-0.039889347 0.0086274482 -0.017803125 0.98420316 -0.14306781 0.10428674 0.0011042572
0.059392389 0.0025124624 -0.016412236 -0.99414152 -0.034019761 0.10259253 0.029484805
0.060522925 0.0089403903 -0.012915045 -0.98605877 -0.099344678 0.13348687 0.037876591
-0.040256172 0.012067634 -0.010205979 0.96693015 -0.22253403 0.12459797 0.016742582
-0.039385434 0.014441956 -0.01604457 0.94231761 -0.3033745 0.14142615 0.034547627
0.061091144 0.015625359 -0.014924183 -0.90593392 -0.41696918 0.073623441 0.093502358
-0.038420651 0.023539791 -0.015031612 0.8592937 -0.49287468 0.13670702 0.068334602
0.0082314741 0.029782176 -0.015618999 -0.11653772 -0.9931863 -1.7384947e-07 1.484424e-07
0.015860014 0.028887061 -0.014820606 -0.11653818 -0.99318612 -3.2616344e-07 4.4209588e-07
0.024426527 0.027881891 -0.014953049 -0.11653785 -0.99318624 1.8925277e-08 0
0.033707276 0.026792912 -0.014828897 -0.15384163 -0.988038 0.010660604 0.0044076038
0.046489347 0.025293093 -0.016488004 -0.44955215 -0.89110518 0.061922729 0.070213638
0.054999553 0.024294527 -0.015010426 -0.65719062 -0.75330663 0.025091629 0.08921238
0.061527066 0.023242475 -0.012330985 -0.77625614 -0.61427629 0.14174263 0.092874818
-0.034991421 0.033969723 -0.014999424 0.63211977 -0.77074826 0.079822958 0.0875073
-0.02232812 0.033367962 -0.015854256 0.27971247 -0.95949256 0.033688884 0.069899343
-0.016356042 0.032667212 -0.016119173 0.08476501 -0.99639869 -0.0021314751 0.036696661
-0.0053412877 0.031374767 -0.015654465 -0.11057596 -0.9938674 0.00078037666 5.999345e-05
0.002095019 0.030502211 -0.015857851 -0.11653796 -0.99318624 -1.3980283e-08 0
-0.004178687 -0.030257747 -0.0074102017 0.11653797 0.9931863 -3.4602831e-08 4.3509723e-07
0.004091816 -0.031228187 -0.0048889937 0.11653798 0.99318624 1.4687843e-07 1.2128808e-07
0.015164293 -0.032527402 -0.0058298702 0.11653871 0.99318612 2.2495638e-07 7.2535391e-07
0.026954323 -0.033910815 -0.0041912384 0.093765855 0.99559414 -0.00052504701 0.00067490205
0.034750447 -0.034825593 -0.0057457611 -0.044921305 0.99848628 0.031735543 0.02369581
0.044261273 -0.035941571 -0.0037855208 -0.31994313 0.94580454 0.055588409 0.066657685
0.054861296 -0.034503948 -0.0055052005 -0.64466441 0.76312137 0.045315932 0.079480782
-0.043622371 -0.02357717 -0.0052350522 0.73120606 0.67739546 0.080455109 0.093914136
-0.034593683 -0.02668893 -0.0072693289 0.51375157 0.85786068 0.011592242 0.065264843
-0.027347662 -0.027539158 -0.0045391619 0.3866429 0.92209244 0.015901467 0.058251515
-0.014837702 -0.029007047 -0.0022330873 0.1258264 0.99205184 0.00096507219 0.00024392936
-0.00762572 -0.029853284 -0.002408833 0.11653806 0.99318618 1.1992023e-07 4.0145869e-07
0.057281207 -0.025758997 -0.0058942265 -0.88300979 0.44917512 0.13614465 0.06420026
-0.044157129 -0.017022785 -0.0054267012 0.95719826 0.26240757 0.12212118 0.05897595
0.058579139 -0.01397589 -0.0064946618 -0.96642637 0.23247595 0.10943018 0.016218454
-0.042877711 -0.0052816495 -0.0045824 0.99410599 0.069883421 0.082883209 0.039896652
0.059476562 -0.0084284469 -0.0046998099 -0.98288786 0.13371132 0.12669931 0.00066480343
0.060444888 -0.0014097784 -0.0035703548 -0.99227059 0.0030515355 0.12405574 0.020014118
-0.041423813 0.0059713526 -0.00588289 0.98650032 -0.12304698 0.10805793 0.00085617171
0.059993826 0.0012527192 -0.0094489865 -0.99393982 -0.0092038047 0.10953949 0.023140809
0.060992762 0.0058048773 -0.0058000665 -0.99271834 -0.09682212 0.071665175 0.044865388
-0.040708654 0.014022342 -0.0037545073 0.95023936 -0.27895167 0.13867629 0.024459478
-0.039837468 0.017439036 -0.0081198951 0.91075659 -0.38252887 0.15554436 0.05135747
0.062432323 0.015903037 -0.0039183591 -0.92726326 -0.36532643 0.081972085 0.082339436
-0.040176429 0.020690437 -0.0015056651 0.89438999 -0.42297709 0.14545438 0.064013638
-0.03927882 0.025078865 -0.0049221371 0.78994101 -0.5888707 0.17095178 0.071781717
0.0084075816 0.029761512 -0.0054077869 -0.11653823 -0.99318618 -2.4316657e-07 2.7713554e-07
0.013941238 0.029112205 -0.0047462396 -0.116538 -0.99318624 -2.4917318e-07 7.3221582e-07
0.024328843 0.02789335 -0.0042338525 -0.11653814 -0.9931863 -2.9146949e-07 0
0.035377599 0.026596915 -0.0054401825 -0.15827467 -0.98739493 0.00066190056 0.0055909259
0.047746599 0.02514557 -0.0038855684 -0.43774885 -0.89736897 0.055720896 0.076049522
0.054224875 0.024385426 -0.0050754887 -0.61523259 -0.7865333 0.053424671 0.083872706
0.061415762 0.023266088 -0.0051634368 -0.74833822 -0.66203988 0.04114617 0.09170834
-0.035055488 0.034039244 -0.0042849267 0.5925318 -0.78170294 0.19454199 0.082408838
-0.025340576 0.033721432 -0.0060720849 0.27252582 -0.96106911 0.045560881 0.073971339
-0.015674407 0.03258723 -0.0034537122 0.045534771 -0.99851614 0.029868387 0.02773064
-0.0054155346 0.031383481 -0.0030396529 -0.11306766 -0.99358732 0.00016612509 3.5917605e-05
0.0033399258 0.030356135 -0.0047601322 -0.11653798 -0.99318624 -1.102519e-07 0
-0.0024113483 -0.030465126 0.0062675504 0.11653817 0.99318624 1.435271e-07 9.3732228e-07
0.0057328604 -0.031420749 0.0047070384 0.11653835 0.99318618 4.1799134e-07 8.6669775e-07
0.013889608 -0.032377839 0.0055954773 0.11653788 0.99318624 -5.222196e-09 0
0.023577314 -0.03351457 0.0050113555 0.11653803 0.99318624 3.1291194e-07 2.2968501e-07
0.034252688 -0.034767188 0.0043916861 0.00077528105 0.99992627 0.012116667 0.017682659
0.045419481 -0.036077473 0.0069844127 -0.35715151 0.92915016 0.095513038 0.075955383
0.054839339 -0.034885291 0.0048434651 -0.56451035 0.81459486 0.13327914 0.088802941
-0.045167156 -0.0238152 0.0045258207 0.82969958 0.55372202 0.070643514 0.094578274
-0.034490354 -0.026701055 0.0047497875 0.42880267 0.90299141 0.027105505 0.058681808
-0.026234733 -0.02766975 0.0049445541 0.32793662 0.9442808 0.028130723 0.042113036
-0.016054368 -0.028864287 0.0044310195 0.13272239 0.99114954 0.0027041596 0.00044437454
-0.0079318173 -0.029817369 0.0062468532 0.11653809 0.99318624 -6.3466878e-08 1.8838068e-07
0.058658239 -0.024467731 0.0029135917 -0.86491388 0.48123023 0.14262357 0.068982735
-0.045209013 -0.014423555 0.0056413733 0.9517206 0.28654918 0.11007952 0.073872797
0.059502587 -0.017761804 0.0033192325 -0.95473504 0.26421672 0.13664043 0.019720646
0.0602534 -0.015093737 0.006408019 -0.95556903 0.25052649 0.15532018 0.020155916
-0.044235867 -0.006092737 0.0056755911 0.98094356 0.087596469 0.17342602 0.038996413
0.061621811 -0.0029465556 0.0060063894 -0.99154603 0.047167014 0.12087893 0.0093168914
-0.0427352 0.0056981263 0.0047579198 0.98555124 -0.12186786 0.11763109 0.00071433705
0.062370326 0.0052926098 0.0044664224 -0.98415971 -0.13361722 0.11651595 0.052082386
-0.041433375 0.014908743 0.0030262156 0.95842648 -0.26275566 0.11125685 0.028892081
0.063553445 0.014684383 0.0050387383 -0.9517076 -0.28855157 0.10483588 0.072197817
-0.040433757 0.02461865 0.0041206842 0.8038739 -0.58372599 0.11423986 0.075187378
-0.039606951 0.028457642 0.0011726416 0.77392095 -0.6198343 0.12981443 0.072870813
0.0078921784 0.029821979 0.0055352175 -0.11653815 -0.99318618 -1.9976349e-07 0
0.015901513 0.028882187 0.0054810871 -0.11653822 -0.99318624 -3.4552279e-08 2.7662207e-07
0.024133716 0.027916243 0.0050982977 -0.11653865 -0.99318618 -3.5254484e-07 0
0.035356481 0.026599389 0.0051973192 -0.12037688 -0.99272823 0.00029115021 4.843474e-05
0.042908989 0.025713196 0.0055530784 -0.25758758 -0.96526664 0.043692425 0.03572828
0.054462124 0.024357582 0.0055837035 -0.56996208 -0.81740415 0.083628133 0.093052983
