# .PCD v0.7 - Point Cloud Data file format
VERSION 0.7
FIELDS x y z normal_x normal_y normal_z curvature
SIZE 4 4 4 4 4 4 4
TYPE F F F F F F F
COUNT 1 1 1 1 1 1 1
WIDTH 575
HEIGHT 1
VIEWPOINT 0 0 0 1 0 0 0
POINTS 575
DATA ascii
0.15293024 0.43414897 -0.025941994 -0.62390375 -0.49784431 0.60240787 0.1489186
-0.19944201 0.44454658 -0.024543246 0.87974143 0.17698649 0.44128299 0.065800451
-0.14013726 0.44190079 -0.029914336 0.26021346 -0.40005484 -0.87877476 0.016978096
-0.13271029 0.44405314 -0.028689288 0.25642586 -0.4020392 -0.87898242 0.019116979
-0.12520313 0.4448801 -0.02720686 0.22877617 -0.44028771 -0.86822122 0.025924334
-0.11433458 0.44419861 -0.024874585 0.13556635 -0.45191658 -0.88169903 0.032786213
-0.10455086 0.44591928 -0.024479166 0.10628219 -0.39389089 -0.91299182 0.04272363
-0.095509343 0.44472149 -0.023349268 0.061373401 -0.46216291 -0.88466865 0.036812905
-0.085544311 0.44453332 -0.023169275 0.0020220531 -0.40795267 -0.91300082 0.04668976
-0.075418398 0.44624209 -0.024674337 0.053120509 -0.34309039 -0.9377991 0.11569529
-0.063135892 0.44524059 -0.024864608 -0.56471545 -0.16399416 -0.80882776 0.20128012
-0.059928678 0.44416982 -0.024288421 -0.57376409 -0.14795451 -0.80554599 0.18919767
0.13693574 0.44810224 -0.024806654 -0.65045309 -0.73014921 0.20926741 0.098385334
0.14200439 0.44414857 -0.025677005 -0.62069964 -0.67198479 0.40394115 0.10033167
-0.199442 0.45600799 -0.026181469 0.85849613 0.013505761 0.51264209 0.064360455
-0.12407291 0.45402426 -0.029264569 0.21507482 -0.13215148 -0.96761495 0.025554588
-0.11609077 0.45465097 -0.027968075 0.19674097 -0.1328806 -0.9714092 0.034153327
-0.10462231 0.45644024 -0.026851572 -0.093968727 -0.0055783903 0.99555951 0.033123583
-0.094591588 0.45475832 -0.026156891 0.07174588 -0.05258064 -0.99603605 0.040287632
-0.085188374 0.45406231 -0.026063431 0.021962605 -0.1281791 -0.99150783 0.048095148
-0.076026179 0.45627418 -0.026735926 -0.15765706 0.024460988 0.9871909 0.10831688
-0.063393176 0.45405647 -0.02697435 0.30410889 0.017029088 0.95248508 0.16809109
-0.05993557 0.45494509 -0.025211185 0.53112036 0.018383387 0.84709692 0.20657617
0.11947638 0.4592526 -0.029795727 -0.40191582 -0.67847353 0.61492872 0.092468359
0.12518211 0.45678613 -0.024606613 -0.56489897 -0.81316268 0.14019796 0.10112818
0.13178402 0.45218983 -0.024857415 -0.57468843 -0.79255611 0.20393145 0.11743337
-0.19944201 0.46544376 -0.025251986 0.83126444 -0.11327448 0.54421347 0.069912173
-0.12492871 0.46451074 -0.028895978 -0.18192092 -0.17934147 0.9668203 0.027835989
-0.11524675 0.46456614 -0.027284976 -0.15824556 -0.15447915 0.97524071 0.028367968
-0.10391396 0.46558598 -0.025742272 -0.066579275 -0.24996184 0.96596396 0.03388685
-0.09584295 0.46472353 -0.025413554 -0.059696905 -0.22208598 0.97319782 0.037047848
-0.084568433 0.46573758 -0.025076818 -0.043387812 -0.27072033 0.96167982 0.043726929
-0.07551197 0.46368295 -0.026144596 -0.13802233 -0.20947447 0.9680239 0.11856838
-0.06320411 0.4653368 -0.026179302 0.39654711 -0.03540764 0.91733128 0.17533876
-0.059711725 0.46529561 -0.026151219 0.40462369 -0.016505996 0.9143343 0.17390959
0.10609575 0.46857595 -0.024663199 -0.47890154 -0.86779684 0.13259701 0.11190157
0.1146844 0.46349949 -0.024903718 -0.50372595 -0.82972389 0.24045466 0.10608573
0.12040362 0.46004388 -0.02288235 -0.52293867 -0.83876342 0.15169391 0.087122068
-0.19944197 0.47517204 -0.025005264 0.82748955 -0.29731476 0.47630337 0.075520366
-0.14345893 0.47787124 -0.028449625 -0.35082027 -0.506392 0.78771335 0.022956632
-0.13584681 0.4744164 -0.027833171 -0.2937119 -0.49153972 0.81983048 0.026079513
-0.12610234 0.47566235 -0.024471657 -0.22548084 -0.57574803 0.78592139 0.029140349
-0.11401844 0.47305804 -0.023717891 -0.1142989 -0.48111516 0.86917436 0.033253688
-0.10619231 0.47320905 -0.022710482 -0.023299564 -0.51423812 0.85733092 0.030161615
-0.09572228 0.47263256 -0.022338573 -0.02596841 -0.45138794 0.89194989 0.041123278
-0.08499527 0.47297081 -0.021995435 -0.05633511 -0.4429355 0.89478189 0.033425488
-0.076621845 0.47374851 -0.021967247 -0.057686459 -0.54870009 0.83402663 0.10839055
-0.063885309 0.47379953 -0.023005215 0.41456926 -0.49278247 0.76504755 0.22670451
-0.05993557 0.47530803 -0.024538893 0.49289861 -0.50455773 0.70885295 0.2031057
0.079834782 0.47955024 -0.029779974 -0.25024354 -0.68235326 0.68685681 0.080801092
0.084861033 0.47859436 -0.026109006 -0.39721319 -0.80870408 0.43384269 0.10259407
0.09542045 0.47402632 -0.024444977 -0.43896449 -0.87497818 0.20426297 0.10851255
0.10154592 0.47111019 -0.024748027 -0.45018396 -0.87593424 0.17341742 0.10232928
-0.19688049 0.48609087 -0.025331115 0.58813488 -0.55390191 0.58931309 0.071101747
-0.18288761 0.48756447 -0.027883619 0.27019888 -0.65916741 0.70177704 0.049897041
-0.17626028 0.48816273 -0.027324326 0.10914091 -0.69578463 0.70990986 0.034914136
-0.16422057 0.48777729 -0.027674988 -0.10558078 -0.69625825 0.70998389 0.016463246
-0.15300079 0.48829785 -0.025816267 -0.21628608 -0.69892526 0.68170673 0.014990762
-0.14522895 0.48369259 -0.024519658 -0.3111864 -0.63461465 0.70740885 0.019107115
-0.13549279 0.48245698 -0.022063106 -0.31833148 -0.6739803 0.66664511 0.031185366
-0.057710916 0.48610473 -0.025481861 0.37456954 -0.76417881 0.52509844 0.12407684
-0.044270251 0.48830035 -0.025580829 0.3368791 -0.80100715 0.49487376 0.086668186
-0.03561281 0.48846075 -0.025869356 0.0571426 -0.81721711 0.57349002 0.082103796
-0.027100638 0.48855448 -0.024109615 0.0022660121 -0.88973832 0.4564653 0.070799328
-0.015194674 0.48848209 -0.024759443 -0.0348447 -0.81328255 0.58082479 0.077812523
-0.0045312154 0.48838267 -0.02587568 0.063968189 -0.77747035 0.62565792 0.078409903
0.0047236695 0.48847783 -0.025294041 0.024965269 -0.82431948 0.56557411 0.075079717
0.01555444 0.48847923 -0.025550604 0.028960658 -0.8610366 0.50771767 0.077176727
0.024047343 0.48838577 -0.025876153 -0.0097147971 -0.82492566 0.56515777 0.073378436
0.034407992 0.48845264 -0.024337597 -0.012530515 -0.84166163 0.53985989 0.085383408
0.04433487 0.48824617 -0.02555484 -0.057657301 -0.83885127 0.54129863 0.064862967
0.053923625 0.4883557 -0.025067948 -0.098757878 -0.86723691 0.48800308 0.060075764
0.064704083 0.4859609 -0.024698462 -0.18527073 -0.9088313 0.37376535 0.065899886
0.07553114 0.48233953 -0.024035767 -0.26765248 -0.82895148 0.49112263 0.098239154
0.081215858 0.4802556 -0.026661823 -0.29807734 -0.78085059 0.54901934 0.073519923
-0.19451597 0.49219862 -0.022175755 0.53294498 -0.71024841 0.45990968 0.075891674
-0.18632385 0.49236709 -0.022307441 0.36837247 -0.78714335 0.49467883 0.071608186
-0.17498039 0.49211675 -0.022610828 0.067519449 -0.80320448 0.59186453 0.022600401
-0.164646 0.49211475 -0.022613259 -0.10242783 -0.80288023 0.58727503 0.016929161
-0.15517808 0.49256602 -0.021926539 -0.20769024 -0.81444043 0.54180402 0.015789164
-0.061802082 -0.4915638 -0.012916728 0.73705912 0.58958489 0.33035362 0.049108014
-0.055363309 -0.49655971 -0.013861043 0.58196861 0.75637138 0.29868853 0.040137827
-0.043870047 -0.5 -0.016930286 0.28485999 0.91577506 0.28321514 0.032008473
-0.036707234 -0.5 -0.014934487 0.17956185 0.96232581 0.20417258 0.01979878
-0.024398621 -0.5 -0.015259914 0.068195991 0.98755777 0.14170018 0.011323459
-0.01569503 -0.5 -0.014810029 0.021832315 0.99675697 0.077452503 0.0051192688
-0.0051403963 -0.5 -0.014817611 0.016193306 0.99878317 0.046582755 0.0028240585
0.0057444824 -0.5 -0.014879936 -0.0048070699 0.99837208 0.056833189 0.0028031662
0.015920172 -0.5 -0.015063723 -0.018266497 0.99839407 0.053624056 0.0029071055
0.026130997 -0.5 -0.015643844 -0.024954099 0.99574137 0.088749744 0.0056522847
0.036505479 -0.5 -0.015123058 -0.070267856 0.99195272 0.10531975 0.0069281831
0.043904722 -0.5 -0.015029015 -0.19352831 0.95451087 0.2268388 0.021498185
0.054732259 -0.49969327 -0.015385374 -0.38210756 0.87229252 0.30512223 0.037866335
0.064615771 -0.49541041 -0.014436571 -0.55838865 0.77962828 0.28351685 0.037732407
-0.064813182 -0.4859007 -0.015213626 0.85056919 0.35204792 0.39063317 0.042823624
0.069601409 -0.48746794 -0.019461285 -0.77131802 0.41620129 0.48150295 0.046295509
0.073760115 -0.48459658 -0.014532427 -0.87902945 0.32005465 0.35337263 0.038003322
-0.065285198 -0.47361672 -0.015119915 0.91221297 0.060210969 0.40526783 0.024061317
0.072475657 -0.474776 -0.016712798 -0.88918132 0.065042496 0.45290852 0.024156574
-0.063839607 -0.46713728 -0.016224641 0.87680668 -0.029147172 0.47995892 0.016900236
0.069032907 -0.46363834 -0.019963169 -0.8337515 -0.073398329 0.5472396 0.015621242
0.072563224 -0.46525493 -0.014516448 -0.91547728 -0.070379525 0.39616671 0.022038544
-0.062616639 -0.45662931 -0.015904192 0.87608945 -0.094420999 0.47281283 0.014724594
-0.059801303 -0.45208815 -0.019653497 0.85938203 -0.092643224 0.50287145 0.013351261
0.069035187 -0.45341855 -0.017900774 -0.85440058 -0.11812757 0.50600946 0.015970875
0.071773812 -0.45593238 -0.0136803 -0.91050464 -0.1213133 0.39530286 0.020188993
-0.061528239 -0.44560316 -0.01558312 0.89307117 -0.11042481 0.43615377 0.017691668
-0.05943726 -0.44659263 -0.019146692 0.84942287 -0.10626023 0.5169037 0.016856814
0.069204591 -0.44681686 -0.016317245 -0.89213479 -0.10204073 0.44009462 0.017122868
0.071629323 -0.44385543 -0.011147166 -0.9384923 -0.074661635 0.33713174 0.026953552
-0.062352154 -0.43565023 -0.012176892 0.93034768 -0.077614427 0.35837016 0.024926292
-0.05860557 -0.43458992 -0.018317729 0.85539174 -0.070390992 0.51317632 0.014025454
0.067572735 -0.43538499 -0.016870735 -0.8683852 -0.11105186 0.48329565 0.017517027
0.070715271 -0.43551204 -0.011404185 -0.92913425 -0.12577507 0.34769264 0.024221919
-0.061369997 -0.42736271 -0.012399822 0.92470825 -0.11237463 0.36371228 0.027019799
-0.057924557 -0.42343739 -0.017529424 0.86839134 -0.099416584 0.48581144 0.013587431
0.067150548 -0.42473939 -0.015705269 -0.88720047 -0.090925843 0.45233601 0.019195106
0.070102789 -0.42690328 -0.010148447 -0.94764841 -0.094840199 0.30490634 0.026489817
-0.060779799 -0.41466656 -0.011009832 0.95348316 -0.069526345 0.29331893 0.030514538
-0.058069736 -0.41661319 -0.016219143 0.88119829 -0.10671932 0.46054378 0.016249871
0.066348575 -0.41432306 -0.015349328 -0.86853665 -0.065148838 0.49132445 0.017271446
-0.060215529 -0.40841511 -0.011284448 0.92964804 -0.093408436 0.3564119 0.026297536
-0.057772573 -0.40510929 -0.015002762 0.90087044 -0.073294103 0.42785552 0.016189005
0.065423615 -0.40486011 -0.015508859 -0.85635161 -0.078883424 0.51033252 0.018968536
-0.056358363 -0.39493385 -0.015928691 0.8901071 -0.073315799 0.44981569 0.01957079
0.064869836 -0.3942678 -0.014986715 -0.88463622 -0.097984686 0.45587024 0.023194235
-0.055906661 -0.38614842 -0.015598794 0.86883837 -0.073673718 0.48958355 0.019971507
0.063957267 -0.38526058 -0.015359244 -0.86506879 -0.090918906 0.49334547 0.01657109
-0.055517554 -0.37667707 -0.015113382 0.87197196 -0.043545499 0.48761523 0.01868096
0.063766591 -0.37480694 -0.014510141 -0.88871986 -0.049039584 0.45582035 0.023802435
-0.05525063 -0.36498532 -0.014481682 0.87105381 -0.033363402 0.49005327 0.016389349
0.062217504 -0.36588183 -0.01620825 -0.84511459 -0.048060134 0.53242046 0.01547746
-0.054290146 -0.35553989 -0.015179642 0.85985482 -0.041735437 0.50882983 0.01929296
0.059737049 -0.35287386 -0.019110063 -0.82479525 -0.030763494 0.56459397 0.018152842
0.063322023 -0.35425255 -0.013419832 -0.90034586 -0.014480135 0.43493411 0.029370835
-0.054028697 -0.34488469 -0.014889725 0.86069542 -0.024721267 0.50851971 0.019032732
0.059600361 -0.34237835 -0.01862382 -0.82855278 -0.013322514 0.55975235 0.019392069
0.063161843 -0.34541425 -0.013033419 -0.91202259 -0.033416718 0.40877646 0.031766683
-0.053122032 -0.33517307 -0.015746763 0.845671 -0.057785269 0.53056705 0.016570615
0.059489664 -0.33623558 -0.018431164 -0.830441 -0.028276727 0.5563885 0.015655255
0.062287431 -0.33554649 -0.013856162 -0.91119277 -0.0059924042 0.41193664 0.031388365
-0.052556597 -0.32460511 -0.016184406 0.86035079 -0.0201564 0.50930357 0.017535849
0.059051245 -0.32257274 -0.018502666 -0.82744539 -0.0086653829 0.56147927 0.019154705
0.062924318 -0.32570556 -0.012347915 -0.91271573 -0.035133056 0.40708178 0.03121517
-0.052788928 -0.31514782 -0.015468553 0.87933952 -0.0048444457 0.47617069 0.022375623
0.059338011 -0.31733602 -0.017843325 -0.83175367 -0.032373697 0.55420017 0.01360884
0.061484165 -0.31509694 -0.014300965 -0.88484508 -0.022255082 0.46535349 0.02280852
-0.052802455 -0.30539295 -0.015212128 0.84854227 0.000137187 0.52912766 0.017907552
-0.049950693 -0.3012867 -0.019740669 0.83271778 0.015643436 0.55347663 0.015951097
0.059026271 -0.30646908 -0.01809503 -0.82679212 -0.0040761121 0.56249279 0.019666707
0.061835546 -0.30379552 -0.013453258 -0.91105676 0.026751872 0.41141188 0.027242269
-0.052171085 -0.29460257 -0.016135076 0.85065097 0.0093310494 0.52564812 0.019159667
-0.04999087 -0.29659304 -0.019663151 0.80847174 -0.02904563 0.58781773 0.020530852
0.059047345 -0.29476893 -0.017927976 -0.83761787 -0.028996659 0.54548651 0.016576309
0.062164851 -0.2949619 -0.012840494 -0.91166097 -0.017527245 0.41056913 0.029039359
-0.053366713 -0.28610465 -0.014196085 0.87348878 -0.04480632 0.48477802 0.021382485
-0.049980909 -0.28903633 -0.019673467 0.81864738 -0.019346582 0.57397056 0.019585453
0.058521226 -0.28543484 -0.018773895 -0.8092941 0.011583718 0.58728939 0.018432641
0.061878402 -0.28422582 -0.013340938 -0.90595806 0.029614218 0.42233041 0.028350692
-0.053537395 -0.27540061 -0.013926513 0.90715063 -0.0241678 0.42011136 0.030568745
0.058848616 -0.27538174 -0.018261598 -0.80789763 -0.014675448 0.58914006 0.017239608
0.061738499 -0.27537814 -0.013587147 -0.90647626 -0.01682174 0.42192158 0.029843468
-0.053085081 -0.2647723 -0.014699936 0.87595558 -0.023749242 0.48180676 0.02411679
0.05847472 -0.26281202 -0.018903093 -0.78232396 0.023839572 0.62241542 0.019127669
0.062408198 -0.2638832 -0.01250001 -0.92018324 -0.0060148272 0.39144182 0.02974936
-0.053856507 -0.25459057 -0.013481865 0.87981945 0.021534845 0.47482002 0.026689874
0.058852103 -0.25570509 -0.018313421 -0.82455063 0.012445637 0.56565124 0.019541157
0.061677046 -0.25490886 -0.013725154 -0.91019797 -0.00050899287 0.41417328 0.028821893
-0.053600799 -0.24551515 -0.01385526 0.88391066 0.006466304 0.46761116 0.026621586
0.059130356 -0.24465919 -0.017884457 -0.81266266 0.011320109 0.5826245 0.019798851
0.061937638 -0.24467124 -0.013338673 -0.9137857 -0.0011611342 0.40619504 0.030412821
-0.053187639 -0.23453431 -0.014465488 0.87725741 0.0379069 0.47852117 0.023787931
0.058913879 -0.2333063 -0.018126344 -0.84031141 -0.013347098 0.54193968 0.015781695
0.061983667 -0.23572668 -0.01316512 -0.91203946 -0.031540327 0.40888783 0.028941978
-0.053067777 -0.22606753 -0.014574618 0.87578195 -0.0081839487 0.48263761 0.02868326
-0.049777746 -0.22469105 -0.01988643 0.82284784 0.032029085 0.56735831 0.016956529
0.058781803 -0.22602181 -0.018253297 -0.81087321 -0.028225144 0.58454084 0.016797915
0.061971352 -0.22410516 -0.013036808 -0.91008854 0.017422726 0.41404739 0.028008047
-0.052555118 -0.21401021 -0.015266876 0.84102941 -0.033438791 0.53995496 0.019067518
-0.049848117 -0.21963724 -0.019712474 0.80710393 -0.0080517652 0.59035444 0.014368099
0.05891861 -0.21692701 -0.017923774 -0.81453025 -0.014352239 0.57994342 0.019570511
0.062140308 -0.21381678 -0.0126408 -0.90967333 0.021355188 0.41477528 0.028026218
-0.052383717 -0.20477962 -0.01539731 0.8544932 -0.0099398904 0.51936758 0.01725686
-0.049863309 -0.20635973 -0.019529127 0.8345446 -0.0065438617 0.55090159 0.016919384
0.059028938 -0.20233759 -0.017538682 -0.84441382 -0.010269351 0.53559297 0.016858762
0.061653391 -0.20520568 -0.013351269 -0.90965313 -0.013350853 0.41515404 0.0274262
-0.053071205 -0.19577047 -0.014082172 0.8795535 -0.028631946 0.47493783 0.022975935
-0.049791701 -0.19479892 -0.019364538 0.80895221 -0.02231456 0.58745086 0.019625861
0.058736917 -0.19470634 -0.017808283 -0.81043285 -0.028494369 0.58513802 0.019355243
0.061537143 -0.19472289 -0.013279292 -0.90634668 -0.032023661 0.4213196 0.029736845
-0.053292498 -0.18362392 -0.013389633 0.89985883 0.022722736 0.43558899 0.029792745
-0.049511578 -0.18266842 -0.019493509 0.80460829 0.0092541026 0.59373385 0.016835049
0.058362126 -0.18577598 -0.018175881 -0.83452183 -0.010414151 0.55087644 0.016447155
0.061675519 -0.18450145 -0.012778278 -0.91318935 -0.0020589598 0.40753043 0.026552942
-0.052984323 -0.17306082 -0.013578706 0.89593166 -0.0010282885 0.44419062 0.030822638
-0.049702086 -0.17842022 -0.019071842 0.80484772 -0.022863688 0.59304082 0.017147841
0.059116732 -0.17626287 -0.016701097 -0.84612054 -0.031433724 0.5320639 0.018077744
0.061564058 -0.17676403 -0.012755882 -0.90417653 -0.05071358 0.42413777 0.027855562
-0.052722264 -0.16467603 -0.013795173 0.89441091 0.0019595786 0.44724193 0.028643887
-0.049863294 -0.16205829 -0.018324628 0.82077157 -0.018309746 0.57096303 0.018755199
0.058522094 -0.16460326 -0.017327715 -0.81870079 -0.011994774 0.57409507 0.021793595
0.061676931 -0.16469175 -0.012226503 -0.92680138 -0.010688522 0.37539974 0.035420932
-0.05223088 -0.1560117 -0.014212482 0.87767875 -0.040580355 0.47752818 0.024738124
-0.049394686 -0.15577798 -0.018821687 0.81692863 -0.026567867 0.57612658 0.019035744
0.058941662 -0.15590012 -0.016299613 -0.85431647 -0.046910722 0.51763195 0.027440513
0.061145168 -0.1548319 -0.012657029 -0.91686833 -0.03184481 0.3979176 0.028202081
-0.052888583 -0.14450474 -0.01267418 0.91233891 -0.031579673 0.40821618 0.033203386
-0.049320828 -0.14474578 -0.018482795 0.78798479 -0.01293077 0.61555892 0.01974584
0.05774023 -0.14416233 -0.017755289 -0.79376119 -0.0015799119 0.60822749 0.021773815
0.060999282 -0.14336288 -0.012450477 -0.91752476 -0.010066117 0.39755142 0.027185531
-0.052569047 -0.13506368 -0.012800673 0.90717256 -0.033100333 0.41945493 0.030670669
-0.04951413 -0.13526124 -0.017776074 0.83158898 -0.032060955 0.55446541 0.017143102
0.058010086 -0.13391365 -0.016892979 -0.86441982 -0.013267326 0.5025956 0.028088383
0.061420649 -0.13377185 -0.011370444 -0.93818295 -0.012937183 0.34589791 0.035018645
-0.051238507 -0.1244453 -0.014500139 0.90494096 -0.0038925018 0.42551926 0.031172903
-0.048811246 -0.12478451 -0.018451359 0.80258512 -0.004872879 0.59651786 0.018689256
0.057606425 -0.12557259 -0.017174771 -0.84204715 -0.027894391 0.53868228 0.031724729
0.060936868 -0.12459318 -0.01174138 -0.91735744 -0.017327977 0.39768732 0.032769293
-0.052104793 -0.11326024 -0.012457915 0.90402639 0.00072490348 0.42747608 0.029631916
-0.049423549 -0.11585595 -0.016961792 0.86647302 -0.038336027 0.49774987 0.023634678
0.057694487 -0.11492424 -0.016446123 -0.84894353 -0.053206641 0.52579844 0.025848323
0.060815692 -0.11335555 -0.01130908 -0.94808555 -0.017304312 0.31754431 0.035065897
-0.052109934 -0.1058575 -0.012052803 0.90877163 -0.030881966 0.41614953 0.029061165
-0.048570115 -0.10330021 -0.017634364 0.7982133 -0.027814912 0.60173225 0.020304518
0.057525013 -0.10529343 -0.016177285 -0.87487155 -0.050263062 0.48173997 0.027936712
0.061114419 -0.10669535 -0.010360028 -0.93731266 -0.053022865 0.34443241 0.038961872
-0.051631745 -0.095587574 -0.012215752 0.91507751 -0.045252878 0.40073103 0.03424545
-0.048332691 -0.094809793 -0.017516112 0.78648007 -0.035692587 0.61658353 0.018758351
0.057216931 -0.093944825 -0.01603476 -0.85619938 -0.035794578 0.51540411 0.032522496
0.060472239 -0.091360211 -0.010608633 -0.92259628 -0.047206171 0.38286772 0.035248771
-0.051460184 -0.086120583 -0.011963943 0.92024481 -0.026853118 0.39042091 0.038486399
-0.047766339 -0.085526809 -0.017897461 0.77913249 -0.054026738 0.6245268 0.019705597
0.057216801 -0.084779628 -0.015470101 -0.85309482 -0.062972546 0.51794177 0.026970923
0.06040211 -0.087940656 -0.010541921 -0.93352622 -0.054740414 0.35430518 0.030397329
-0.05133947 -0.074322201 -0.011330257 0.92617714 -0.018723102 0.3766236 0.040503886
-0.048773471 -0.075676136 -0.015577233 0.86306173 -0.055885546 0.50199735 0.03239087
0.056737751 -0.074919209 -0.015524377 -0.85014611 -0.014219663 0.52635485 0.02471716
-0.050750699 -0.065152399 -0.011629536 0.92341024 -0.049859118 0.38056231 0.039016597
-0.04809124 -0.06664633 -0.015987661 0.8431282 -0.030061537 0.53687161 0.029072206
0.055717215 -0.064292982 -0.016444707 -0.83077407 -0.076750837 0.55129284 0.022203786
-0.050750822 -0.055927496 -0.010972361 0.93858308 -0.028666874 0.34386063 0.039969504
-0.047046121 -0.054908402 -0.016844779 0.81502998 -0.059741553 0.57633078 0.02865861
0.055386737 -0.053036276 -0.016110355 -0.85456461 -0.0095837917 0.51925671 0.024377044
-0.050478622 -0.0448603 -0.010570938 0.94818085 -0.04479045 0.31455827 0.034222666
-0.04646429 -0.044588655 -0.016857121 0.84184229 -0.02315931 0.53922647 0.030173684
0.054986816 -0.045185801 -0.01612013 -0.84166414 -0.049367692 0.53774005 0.022630321
-0.050093453 -0.037970055 -0.01060627 0.94908994 -0.048775204 0.31120607 0.028772771
-0.048297424 -0.034273699 -0.013193248 0.90546519 -0.048311502 0.42166194 0.025919238
0.054787882 -0.033521704 -0.015493038 -0.83113736 -0.040399533 0.55459762 0.020075751
-0.047255937 -0.024021031 -0.013946154 0.89908224 -0.049367219 0.43498746 0.028623452
0.053910326 -0.024948632 -0.016159203 -0.81467384 -0.059456103 0.57686353 0.018655151
-0.04628231 -0.014789704 -0.014710446 0.83170277 -0.079275034 0.54953253 0.022876939
0.053283654 -0.01503126 -0.01623217 -0.80055141 -0.056534141 0.59659147 0.020521175
-0.044996258 -0.0055726306 -0.015803093 0.83408833 -0.083969295 0.54520255 0.031446859
0.054397237 -0.0043142387 -0.013515497 -0.87921661 -0.059451636 0.47269824 0.036648367
-0.045150321 0.0056204041 -0.014476289 0.82747859 -0.088058122 0.55454934 0.026864082
0.049345322 0.005261933 -0.019589551 -0.75172532 -0.021395393 0.6591292 0.024620349
0.053544939 0.0040463787 -0.014124525 -0.84198302 -0.042414997 0.53783411 0.031587973
-0.045537606 0.014674871 -0.012966088 0.86820489 -0.067489587 0.49159461 0.02837774
0.04864037 0.014778655 -0.019601267 -0.74032331 -0.01495106 0.67208481 0.025249124
0.052062307 0.01499445 -0.015391695 -0.84550774 -0.0079910308 0.53390336 0.030771298
-0.044321612 0.025103107 -0.013842104 0.86986929 -0.055662576 0.49013174 0.038438883
0.04856962 0.024817029 -0.019026123 -0.74533576 -0.039404612 0.66552371 0.026015824
0.052742723 0.025291765 -0.013281177 -0.90534043 -0.067275926 0.41932407 0.036108542
-0.043130968 0.036611065 -0.014654022 0.82609653 -0.023888206 0.56302208 0.030725997
-0.039452005 0.035097606 -0.019315535 0.73574966 -0.035893492 0.67630178 0.023300184
0.048355415 0.034159999 -0.01856263 -0.75200742 -0.069360375 0.65549517 0.025190217
0.051934905 0.035197478 -0.013510846 -0.89050531 -0.059434097 0.45107415 0.039105088
-0.043177009 0.044793025 -0.013648868 0.8569144 -0.015887065 0.51521385 0.04135666
-0.038946629 0.045643624 -0.018989051 0.74220282 -0.020273019 0.66986865 0.024618486
0.047985535 0.043694824 -0.018199021 -0.73947185 -0.081203684 0.6682719 0.021305872
0.051767845 0.043881308 -0.012775396 -0.89953834 -0.052844115 0.43363374 0.035123944
-0.043079935 0.056412268 -0.012461782 0.90925592 -0.051841285 0.41299656 0.044362716
-0.039224196 0.054396644 -0.018109465 0.72913796 -0.05205489 0.68238413 0.028135911
0.047576372 0.054941863 -0.017680075 -0.7551077 -0.05127928 0.65359217 0.024038047
0.051536966 0.053657446 -0.012016674 -0.90368694 -0.11117365 0.41350976 0.038971037
-0.042320188 0.066205382 -0.012555373 0.8764233 -0.067010827 0.47685599 0.030972363
-0.038329326 0.065141365 -0.018097876 0.72304451 -0.065662876 0.68767375 0.027282188
0.047018722 0.065478496 -0.017013354 -0.77828014 -0.066316776 0.6244055 0.034287401
0.050878059 0.065988533 -0.011654417 -0.91825712 -0.063122272 0.39092129 0.040096611
-0.042100117 0.072600126 -0.012118851 0.87308937 -0.067858391 0.48281488 0.037984405
-0.037728939 0.075363994 -0.017702088 0.72382116 -0.043960489 0.68858582 0.025326323
0.04620757 0.076559335 -0.0168535 -0.78837854 -0.05024939 0.61313474 0.036983956
0.050450761 0.075073145 -0.011203553 -0.95143831 -0.062217988 0.30148646 0.034253616
-0.04136711 0.088513814 -0.011224522 0.92223984 -0.062771477 0.38148841 0.046709623
-0.036443405 0.085479341 -0.017995726 0.77290428 -0.035380173 0.63353544 0.034120429
0.046650849 0.085933656 -0.015314905 -0.83139396 -0.061540406 0.55226523 0.040448964
-0.040823627 0.095205292 -0.01122901 0.93571401 -0.068124361 0.34611899 0.039004009
-0.036524776 0.095189571 -0.016940592 0.72948855 -0.076141849 0.6797418 0.036549084
0.045958322 0.094355606 -0.015285182 -0.82297754 -0.1171957 0.55585349 0.031308435
-0.040490311 0.10347982 -0.010682163 0.93915665 -0.045720145 0.34043276 0.036887541
-0.036559209 0.10472915 -0.015974876 0.79127765 -0.06251803 0.60825253 0.031919982
0.045213908 0.10358659 -0.015326376 -0.83248389 -0.098098181 0.54529572 0.025882658
-0.035778895 0.11489742 -0.015647735 0.80045366 -0.091810934 0.59232146 0.024563214
0.044171192 0.11497343 -0.015281677 -0.79784417 -0.11474693 0.59184277 0.026972828
-0.034873504 0.12583084 -0.015555412 0.82059175 -0.079591662 0.56594557 0.028186761
0.038969688 0.12751563 -0.019250235 -0.70350194 -0.027053406 0.71017826 0.02878342
0.044130865 0.12464085 -0.014101124 -0.86442566 -0.089992762 0.49464083 0.036488529
-0.034825262 0.13512832 -0.014375721 0.84723878 -0.083121978 0.52466851 0.038246009
-0.029794965 0.13307714 -0.019780297 0.69673169 -0.11560936 0.70795447 0.030132102
0.038361486 0.1349628 -0.01909958 -0.70871127 -0.023527764 0.70510626 0.028145211
0.042018436 0.13460259 -0.015621042 -0.81159288 -0.05253619 0.58185649 0.035433196
-0.034596071 0.14509101 -0.013673279 0.83799601 -0.082366988 0.53942418 0.034190562
-0.029276945 0.14021814 -0.019578932 0.64282072 -0.074007519 0.76243329 0.022446522
0.037865493 0.14690895 -0.018428525 -0.69344962 -0.064530201 0.71760958 0.0309442
0.042304672 0.14543252 -0.014174842 -0.83524179 -0.095645085 0.54150081 0.040950105
-0.033739265 0.1552612 -0.01356897 0.85500222 -0.13722762 0.50013977 0.037386455
-0.029117703 0.15751754 -0.018035786 0.69845569 -0.071081087 0.71211457 0.028062476
0.038065553 0.15282325 -0.017668512 -0.70802075 -0.10507359 0.69833094 0.028852971
0.042296261 0.15599531 -0.012914176 -0.8886019 -0.069064476 0.45344996 0.035852998
-0.032828823 0.16491671 -0.013569618 0.84690398 -0.088694423 0.52429664 0.036244623
-0.028507527 0.16595307 -0.017717188 0.69340014 -0.042020276 0.7193265 0.027798865
0.036799636 0.16378678 -0.017667335 -0.68405831 -0.096235678 0.72305113 0.029130923
0.041676726 0.16650756 -0.012281764 -0.90911418 -0.071685888 0.41033223 0.043130118
-0.032589395 0.17481151 -0.012583917 0.85537851 -0.1030624 0.50764722 0.042727187
-0.027519651 0.17634545 -0.017530885 0.69245005 -0.042825729 0.72019362 0.02714048
0.03578027 0.17538311 -0.017334305 -0.74788457 -0.12092247 0.65272236 0.03936974
0.041227169 0.17615256 -0.011460388 -0.88859743 -0.056309089 0.45521861 0.044465691
-0.031677172 0.18547583 -0.012376472 0.88396645 -0.10409874 0.4558143 0.054305155
-0.026362799 0.18555221 -0.017547714 0.67818034 -0.054561052 0.73286736 0.029613685
0.035102081 0.18649247 -0.016783679 -0.76679879 -0.097689085 0.63441038 0.038953438
0.040679943 0.18395114 -0.01109764 -0.91108143 -0.13118652 0.39079511 0.052046165
-0.031926624 0.19424762 -0.010738436 0.91945773 -0.090215959 0.38269898 0.051941469
-0.025288014 0.19472072 -0.01753189 0.70070207 -0.10572376 0.70557708 0.036798336
0.034781937 0.19405547 -0.01629102 -0.77489954 -0.083582461 0.62653387 0.03805434
-0.031661123 0.20081866 -0.010156283 0.93415475 -0.090502404 0.34520179 0.05526191
-0.025582744 0.20444243 -0.016427582 0.73883438 -0.091703132 0.66761839 0.04321279
0.028259758 0.2072151 -0.019844685 -0.56444579 -0.062869899 0.82307249 0.028532663
0.035174698 0.20504685 -0.014902504 -0.81282198 -0.097057879 0.57436925 0.042817354
-0.03002329 0.21772575 -0.010686023 0.86022145 -0.045105591 0.50792193 0.049124915
-0.025876012 0.21468218 -0.015325834 0.76662993 -0.068455607 0.63842964 0.032682959
-0.019573104 0.21206272 -0.01991133 0.55910182 -0.070329249 0.82611066 0.030670566
0.028195629 0.21476893 -0.019429592 -0.59739923 -0.034891699 0.80118459 0.031410526
0.034419604 0.21601398 -0.014660795 -0.78837049 -0.062174551 0.61205095 0.050926849
-0.024887275 0.22490612 -0.015432873 0.74720681 -0.056679543 0.66217023 0.033301011
-0.019200085 0.22780223 -0.019295713 0.56327677 -0.013822223 0.82615262 0.028675584
0.02795662 0.22481322 -0.019039894 -0.64065719 -0.057700507 0.76565593 0.036622416
0.034000333 0.22570154 -0.01448579 -0.8062101 -0.027409958 0.590994 0.045309465
-0.023441069 0.23573485 -0.016164171 0.74231219 -0.024631567 0.66960126 0.037780862
-0.018909553 0.23432122 -0.019170953 0.56489801 -0.060337614 0.82295173 0.02918021
0.027677435 0.23354161 -0.018797586 -0.63577634 -0.049271427 0.77029908 0.033094283
0.035403192 0.23569508 -0.012379259 -0.8604883 -0.012923388 0.50930631 0.055162877
-0.024775315 0.24548943 -0.014520661 0.79013479 0.0019461405 0.61293006 0.05251402
-0.017933866 0.2429872 -0.019374173 0.56279218 -0.038831435 0.82568586 0.032281175
0.02739154 0.24505413 -0.01854966 -0.63829482 -0.053270679 0.76794654 0.034151945
0.033793699 0.24301042 -0.01383322 -0.79291266 -0.048219685 0.60742426 0.038174957
-0.023546204 0.25479841 -0.015404458 0.74209344 -0.060339063 0.66757512 0.050434459
-0.018177116 0.25449601 -0.018951632 0.59138501 -0.03898038 0.80544662 0.032885216
0.026792787 0.25550476 -0.018598346 -0.62737429 0.025218226 0.7783094 0.032317366
0.033513751 0.25575718 -0.013667861 -0.81956851 -0.071339354 0.56852281 0.044334561
-0.024835421 0.26461142 -0.014044026 0.82258797 -0.023677496 0.56814462 0.052110683
-0.018120518 0.26536009 -0.018799795 0.57343125 0.0070253173 0.81922352 0.028628366
0.027946917 0.2630389 -0.017857706 -0.62833101 -0.022377096 0.77762419 0.0340872
0.033585031 0.26592159 -0.013268772 -0.84572649 -0.029205609 0.53281689 0.052819919
-0.024946352 0.27482638 -0.013717725 0.80886185 -0.0078162542 0.58794677 0.050380062
-0.017111756 0.27495182 -0.019244548 0.57517111 0.023009373 0.81770945 0.032055624
0.027215349 0.27545017 -0.018115491 -0.60993755 0.0025722091 0.7924453 0.03686614
0.032971617 0.27669746 -0.013828033 -0.8000145 0.023508364 0.59951991 0.055472016
-0.024871798 0.28569219 -0.013885486 0.83952951 -0.016205782 0.54307246 0.049177766
-0.018397408 0.28499734 -0.018598003 0.60503989 -0.001566938 0.7961936 0.037083309
0.026770197 0.2834858 -0.018386522 -0.60951376 -0.0052139219 0.79275835 0.034716751
0.034256872 0.28617665 -0.012559406 -0.83262366 0.036615662 0.55262744 0.049908016
-0.024340319 0.29431394 -0.014529002 0.79898566 -0.014099585 0.60118461 0.042814542
-0.01768961 0.29394749 -0.019035514 0.57587874 0.0058934763 0.81751388 0.030839128
0.026224375 0.29633862 -0.018784411 -0.61338538 0.030025162 0.78921276 0.03553322
0.033621497 0.2949675 -0.013397221 -0.81117147 0.015940338 0.58459115 0.055421665
-0.024733152 0.30421162 -0.014412333 0.79201001 -0.012992874 0.61036986 0.057905972
-0.018332696 0.30356929 -0.018881353 0.60557193 0.0094766794 0.79573417 0.033673771
0.027703218 0.3037127 -0.018156135 -0.65394032 -0.010503139 0.7564733 0.033512097
0.033651229 0.30599886 -0.013600735 -0.84285796 0.040457029 0.53661311 0.048752356
-0.025127552 0.31581157 -0.014270886 0.80514479 0.032422371 0.59219146 0.050515726
-0.017682472 0.31414717 -0.019488238 0.57686031 0.0062298309 0.81681907 0.027816158
0.026302671 0.31561151 -0.019210801 -0.59579152 0.059568822 0.80092698 0.03001553
0.032988425 0.31754565 -0.014718357 -0.76780802 0.048832271 0.63881636 0.043919969
-0.025838088 0.32590923 -0.014189218 0.79193497 0.084217884 0.60476971 0.04281535
-0.018289117 0.32505253 -0.019567335 0.54615259 0.029811649 0.83715504 0.030572474
0.02890471 0.32502139 -0.018201102 -0.65867043 0.063566409 0.74974161 0.032063808
0.034591958 0.32511488 -0.013574935 -0.82585937 0.062410764 0.56041169 0.048070069
-0.030280527 0.33840352 -0.010127544 -0.90276831 -0.10647093 -0.41674137 0.04973162
-0.025461391 0.33501953 -0.015089621 0.76301265 0.056789931 0.643884 0.034319479
-0.018857066 0.33320269 -0.019633425 0.55611914 0.049396157 0.82963336 0.028655203
0.027239233 0.33607051 -0.019564353 -0.58955067 0.040708244 0.80670488 0.031525858
0.03362621 0.33427721 -0.01499809 -0.7706672 0.055562183 0.63481092 0.032453246
-0.030636661 0.34523132 -0.010345461 -0.93265802 -0.10276072 -0.34581697 0.056822754
-0.025090177 0.34462091 -0.016147889 0.74521697 0.078124836 0.66222966 0.045194443
0.028655469 0.3447063 -0.019299729 -0.59227526 0.066012762 0.80302691 0.029067824
0.035122741 0.34577468 -0.014365549 -0.82604247 0.045769423 0.56174636 0.053161647
-0.030470951 0.355102 -0.011879184 -0.90850556 -0.11716855 -0.40110984 0.11278389
-0.02563113 0.35439065 -0.01642888 0.78962213 0.070972547 0.60947502 0.12818529
0.029370876 0.35159853 -0.019348038 0.55322504 -0.10322925 -0.82661098 0.093721561
0.03543191 0.35585499 -0.014984777 -0.87395525 0.0035563787 0.48599336 0.12181852
-0.031513218 0.36559632 -0.011742744 -0.87359774 -0.36730847 -0.31923568 0.14869714
-0.025590183 0.3648662 -0.017456425 -0.698367 -0.3676945 -0.61407191 0.17061447
0.029827431 0.36237115 -0.019851077 0.59590858 -0.15403368 -0.78814119 0.15840837
0.034585446 0.36538005 -0.016636135 0.73095876 -0.37381139 -0.57093287 0.17210414
-0.035020459 0.37278864 -0.015669802 -0.83546567 -0.43158641 -0.3401913 0.10548454
-0.023783451 0.37153301 -0.014485979 -0.55468643 -0.68462545 -0.47287533 0.20120378
-0.01619746 0.37162372 -0.014986706 -0.32038668 -0.75609666 -0.57067531 0.1944508
-0.0043488243 0.37162375 -0.014597747 0.10961715 -0.97073871 -0.21365952 0.20345697
0.005873445 0.37162378 -0.015072759 0.067881972 -0.92360663 -0.37728345 0.20830198
0.014776786 0.37162381 -0.015282529 -0.035519298 -0.83622748 -0.5472312 0.22470568
0.024967702 0.37162378 -0.014117364 0.3435747 -0.81902891 -0.45950842 0.22899853
0.034627911 0.37151358 -0.015928762 0.7085647 -0.44470266 -0.54788274 0.16460112
0.044360995 0.37362504 -0.015879352 0.85587221 -0.4024356 -0.32485124 0.10597851
0.18983215 0.37974936 -0.019793063 -0.70914078 -0.70489699 0.015480155 0.065980047
0.19605514 0.37637517 -0.014940335 -0.75204432 -0.65907407 -0.0071151122 0.05707046
-0.040903967 0.38776767 -0.016248131 -0.83991051 -0.44337058 -0.31300625 0.058190174
-0.039364405 0.38227352 -0.013502263 -0.83643442 -0.48414892 -0.25686035 0.060285762
0.046255369 0.38563186 -0.016475683 0.87168723 -0.39603388 -0.28864944 0.064653911
0.1788466 0.38799334 -0.0155193 -0.70340461 -0.71078789 0.0015639634 0.079689518
0.18477377 0.38358399 -0.016063809 -0.72276479 -0.69028836 0.033363014 0.070606165
0.19261947 0.38417625 -0.015409009 -0.78448468 -0.61962414 0.02549066 0.064076774
-0.043512467 0.39531958 -0.014876561 -0.88684827 -0.3722344 -0.27375463 0.047281612
0.047610201 0.39497569 -0.014722648 0.94298846 -0.24495548 -0.2253211 0.043986734
0.16616513 0.39633062 -0.014245498 -0.59664011 -0.8015306 0.039614342 0.11288803
0.17322235 0.39180246 -0.01635235 -0.71763921 -0.69620639 0.017046468 0.086207837
0.18576768 0.39520466 -0.016655227 -0.7837801 -0.61881596 0.052494362 0.07052765
-0.050076298 0.40971521 -0.01619019 -0.86037391 -0.41798097 -0.29163113 0.041619606
-0.047109414 0.40377453 -0.012852215 -0.8883763 -0.38722113 -0.24667244 0.047196299
0.049233701 0.40286827 -0.015714139 0.93906945 -0.24220628 -0.24389498 0.052294575
0.050499622 0.40779138 -0.014576445 0.89651895 -0.38527215 -0.21867603 0.051120546
0.14566167 0.40758577 -0.015037707 -0.24085772 -0.97050297 -0.010564435 0.18176395
0.15428135 0.40316257 -0.015380832 -0.4869476 -0.87057394 -0.070589855 0.1580539
0.17754129 0.40684533 -0.014292519 -0.7818656 -0.62144148 0.049967244 0.090052456
0.18149455 0.40150642 -0.013819556 -0.76328462 -0.6430071 0.062756717 0.083309405
-0.19468714 0.41907984 -0.015405381 -0.53790247 -0.7671417 -0.34950629 0.07671161
-0.18427312 0.41783172 -0.013612497 -0.28710374 -0.90558958 -0.31221586 0.049415506
-0.17439203 0.41827425 -0.0146061 -0.03519167 -0.93104655 -0.36319926 0.026333103
-0.16497183 0.41814283 -0.014275038 0.13274589 -0.92659473 -0.35185328 0.020080885
-0.15514392 0.41812304 -0.01344804 0.20651531 -0.91090339 -0.35722038 0.01845748
-0.054000858 0.41633832 -0.015354288 -0.85297227 -0.4311651 -0.29416838 0.063196994
0.052762311 0.41505638 -0.015130146 0.79288602 -0.520531 -0.31682676 0.086179949
0.11760867 0.41903055 -0.013582263 -0.2898691 -0.95173258 0.10090132 0.12590419
0.12524271 0.41632017 -0.016202942 -0.35736918 -0.9327271 0.048035692 0.11214624
0.13421939 0.41276675 -0.015896782 -0.22122858 -0.9750905 -0.01601422 0.17399155
0.14049231 0.41001445 -0.017241178 -0.24931887 -0.96396792 -0.092768118 0.17763251
0.16817126 0.41844386 -0.011125446 -0.725743 -0.67982978 0.10549204 0.13848642
0.17158261 0.41444525 -0.013808891 -0.75482893 -0.6518957 0.07256192 0.128989
-0.19742627 0.42297214 -0.016336881 -0.70895666 -0.63837272 -0.29976764 0.080711879
-0.18370624 0.42039311 -0.01936337 -0.2936421 -0.81859225 -0.4936406 0.053179611
-0.1718625 0.42035443 -0.019276455 0.031702705 -0.89024103 -0.45438516 0.013588413
-0.16642258 0.42015034 -0.018818296 0.12486075 -0.8729192 -0.47161618 0.016842041
-0.1526767 0.42151302 -0.01764253 0.24471918 -0.84272164 -0.47951317 0.020295514
-0.14604788 0.42438185 -0.016329667 0.26789549 -0.81524879 -0.5134213 0.020940907
-0.13546996 0.4269633 -0.014488935 0.285568 -0.83490974 -0.47050685 0.031709217
-0.12712301 0.42816228 -0.012404754 0.24060856 -0.90386748 -0.3537387 0.036292054
-0.11859259 0.42975801 -0.011986236 0.18581159 -0.88810647 -0.42040586 0.04163079
-0.062441491 0.42987099 -0.011450815 -0.88079464 -0.41466415 -0.22859247 0.18234469
-0.058501471 0.42407304 -0.015576279 -0.79271948 -0.47599828 -0.38081685 0.13136901
0.057132199 0.42471874 -0.015471639 0.59880406 -0.75604975 -0.26423943 0.11441714
0.066422544 0.42964685 -0.01622376 0.45888183 -0.84408915 -0.2773824 0.11480294
0.074831016 0.42904115 -0.015302908 0.21688817 -0.96986467 -0.11100516 0.097760506
0.084765233 0.42742756 -0.016970003 -0.020545086 -0.99948394 0.0246916 0.09966857
0.094066828 0.42556638 -0.016556343 -0.22074494 -0.97131389 0.088437207 0.12035044
0.10434736 0.42304516 -0.014915403 -0.30608594 -0.94830602 0.083827399 0.12978706
0.11331809 0.42047691 -0.014901618 -0.37386227 -0.91991419 0.11825817 0.11791416
0.15874103 0.42869896 -0.016515184 -0.74804759 -0.66033143 0.066235654 0.19032361
0.16362746 0.42363149 -0.014664844 -0.75838417 -0.64421737 0.099183671 0.16286057
-0.19944201 0.43445298 -0.015255355 0.8860414 0.36846778 0.28135774 0.06736552
-0.133577 0.43076986 -0.019235518 0.26082635 -0.73442161 -0.62657362 0.034097813
-0.1228431 0.43192771 -0.016862197 0.18777588 -0.80096173 -0.56850725 0.04267931
-0.11623216 0.43148509 -0.014389333 0.13002218 -0.87915093 -0.45846254 0.049975738
-0.10514805 0.43388781 -0.015194909 0.096454278 -0.83147043 -0.54713202 0.038632318
-0.09400101 0.4349145 -0.01557738 0.071067899 -0.83111835 -0.55153579 0.041517932
-0.085306324 0.43504235 -0.015491989 0.010120583 -0.84142697 -0.54027611 0.055417445
-0.075315967 0.4345848 -0.016089574 0.034977999 -0.8424474 -0.53764206 0.16115589
-0.063914731 0.4340837 -0.016290216 -0.85131389 -0.30247259 -0.42868987 0.19858949
-0.059935566 0.43601984 -0.014932186 -0.82452112 -0.30923897 -0.47385252 0.19740431
0.064550735 0.43021128 -0.013089024 0.49350277 -0.85561579 -0.15612991 0.09161073
0.14799578 0.43898106 -0.014532288 -0.69014299 -0.71642548 -0.10216258 0.13875657
0.1532509 0.43417338 -0.014957609 -0.7928049 -0.60824102 -0.038773134 0.16724287
-0.19944203 0.44455189 -0.016522033 0.95824486 0.15124567 0.24267566 0.033673797
-0.06016133 0.44479993 -0.014332021 0.9807393 -0.14143641 0.1347076 0.20853557
-0.05993557 0.44488394 -0.014430167 0.98073947 -0.14143592 0.13470699 0.20853557
0.13716 0.44810048 -0.014846885 -0.65886623 -0.74784487 -0.08138413 0.11839972
0.14266361 0.44366789 -0.013804846 -0.66361558 -0.74793422 -0.014449406 0.10939218
-0.19944201 0.45466727 -0.015657682 0.98260295 0.00032263593 0.1857183 0.026440255
-0.060161326 0.45576394 -0.014207819 0.99625015 0.0057569384 -0.086327367 0.14308135
-0.059935566 0.45479769 -0.015607921 0.99971133 0.0091461847 0.022216814 0.19247071
0.12487564 0.45708609 -0.015203849 -0.58929074 -0.80653864 -0.047242638 0.11831358
0.13262057 0.45155349 -0.014437268 -0.58985007 -0.80201858 -0.094038144 0.12301014
-0.19944201 0.46651518 -0.017135164 0.95947558 -0.12808235 0.25100106 0.033619046
-0.060161334 0.4664886 -0.015946435 0.97088122 -0.16180779 0.17665751 0.21598066
-0.059935566 0.4640882 -0.013850432 0.99865794 -0.0516157 0.004257082 0.18274727
0.10677917 0.46819481 -0.016037395 -0.51246381 -0.85846967 -0.020265488 0.12733601
0.11574961 0.46301109 -0.015868077 -0.48647863 -0.8716501 -0.059704341 0.097311787
0.12010287 0.46024072 -0.013640162 -0.48983759 -0.86807895 -0.080611244 0.11096179
-0.199442 0.47468245 -0.014648302 0.95151836 -0.17947803 0.24980092 0.049331784
-0.11081987 0.47845656 -0.019554844 -0.07296852 -0.69441837 0.71586227 0.040734738
-0.10371071 0.47884649 -0.01800764 0.00023155854 -0.71815139 0.69588679 0.040416118
-0.093801677 0.47819513 -0.017930536 -0.073646747 -0.71423602 0.69601941 0.045163248
-0.083698027 0.47808218 -0.018053513 -0.049081381 -0.71294558 0.69949967 0.063736148
-0.076051846 0.47818872 -0.018759701 -0.13850972 -0.74630004 0.65103871 0.13054626
-0.060161322 0.472974 -0.013871782 0.99210441 -0.019677503 0.12386172 0.23260094
-0.05993557 0.47522613 -0.014352131 0.63827962 -0.72568542 0.25686511 0.24180728
0.086318433 0.4782171 -0.014876583 -0.5347572 -0.83812767 0.10759494 0.093529247
0.094662413 0.47439951 -0.015113227 -0.51795 -0.85446233 0.04027376 0.096623376
0.10182973 0.47095034 -0.014255963 -0.47154829 -0.88122392 -0.032965329 0.1031052
-0.19944198 0.48475605 -0.014838687 0.83183777 -0.48493001 0.26997942 0.071594127
-0.1418796 0.4884192 -0.017701965 -0.29118776 -0.80506843 0.51679248 0.029343724
-0.13532153 0.48762873 -0.015011747 -0.27494282 -0.8415845 0.4649106 0.035987396
-0.12379847 0.48410422 -0.01545604 -0.18609811 -0.79498184 0.57738316 0.025366943
-0.11470062 0.4829497 -0.014441028 -0.16620101 -0.85536891 0.49063349 0.035613861
-0.10529012 0.48203906 -0.014196538 -0.0809559 -0.85954815 0.5046019 0.045765575
-0.094279736 0.4817616 -0.013535701 -0.075967468 -0.87992334 0.46900305 0.055912845
-0.087816879 0.48200989 -0.01289919 -0.043130301 -0.89081663 0.45231125 0.037210092
-0.075373314 0.48247328 -0.013208489 -0.1234071 -0.93493748 0.33265966 0.11664987
-0.062889367 0.48261684 -0.014324339 0.29871449 -0.87024111 0.39172706 0.21600936
-0.058382809 0.48572609 -0.014979322 0.28934288 -0.94017762 0.17985208 0.15191223
-0.043705102 0.48855448 -0.013608026 0.31386206 -0.93388677 0.17130713 0.065500133
-0.033969782 0.48855448 -0.01516859 0.060664333 -0.9531213 0.29644513 0.046207782
-0.025054378 0.48855448 -0.013698397 0.043049246 -0.96484041 0.25928715 0.046624862
-0.014997962 0.48855439 -0.014842403 -0.033214781 -0.97824085 0.20479649 0.028131058
-0.0061905524 0.48855436 -0.0155505 -0.008313993 -0.95302612 0.30277383 0.046427462
0.0044212965 0.48855448 -0.014332709 0.022109848 -0.97283089 0.23045872 0.028094178
0.016351512 0.48855448 -0.016042734 7.5734642e-05 -0.93443853 0.35612452 0.05895029
0.025752319 0.48855454 -0.014641214 0.0035637128 -0.94429904 0.32906932 0.062352072
0.034295071 0.48855445 -0.015277431 0.0072671385 -0.94884819 0.31564891 0.060786881
0.045607671 0.48855448 -0.015372106 -0.051337469 -0.9630596 0.26434931 0.04426755
0.05595459 0.48832384 -0.015888106 -0.12707835 -0.95396125 0.27167809 0.045214154
0.064860895 0.48600549 -0.01576761 -0.20558511 -0.9420253 0.26518494 0.053906661
0.074047767 0.48299915 -0.014972104 -0.37463725 -0.91451865 0.15265186 0.054524466
0.080674015 0.48046401 -0.012489789 -0.50158012 -0.86237705 0.068725616 0.078372002
-0.19574338 0.4950892 -0.014499656 0.60956889 -0.74358296 0.2747913 0.076005124
-0.18640964 0.49653149 -0.014947578 0.35382131 -0.84315473 0.40484649 0.063869491
-0.1748635 0.49609354 -0.015939632 0.056152031 -0.89739197 0.43764681 0.024803547
-0.1662686 0.49716142 -0.013525453 -0.094676696 -0.93186539 0.35023317 0.015240734
-0.15342326 0.49594998 -0.01443853 -0.21904655 -0.91729534 0.33254755 0.022037897
-0.14576575 0.49158844 -0.014236831 -0.27254361 -0.87456518 0.40106821 0.024093796
-0.13749734 0.49032426 -0.010801075 -0.27965924 -0.91129744 0.3022047 0.035638187
-0.062657155 -0.49300113 -0.0045667137 0.74513513 0.65078509 0.14578173 0.052543271
-0.054866113 -0.49880522 -0.0055757118 0.57309812 0.80883843 0.13167696 0.03991982
-0.044455424 -0.5 -0.0064790598 0.26419696 0.95959663 0.096821271 0.02033502
-0.034161076 -0.5 -0.0062186937 0.10516666 0.99240595 0.063799873 0.0073578251
-0.024299359 -0.5 -0.0044102371 0.0074551003 0.99994314 0.0076244539 0.00027976406
-0.015051504 -0.5 -0.0051219258 0.0010244978 0.99999881 0.0011337451 3.4117027e-05
-0.0050121797 -0.5 -0.0051269988 -0 1 -0 0
0.0051594856 -0.5 -0.0040381001 -0 1 -0 0
0.015412529 -0.5 -0.0047862036 -0 1 -0 0
0.025963025 -0.5 -0.0045768046 -0.00091175287 0.99999887 0.0012124141 3.4950022e-05
0.035080675 -0.5 -0.0053346348 -0.021607667 0.99926394 0.031696159 0.0017806687
0.045270417 -0.5 -0.004328853 -0.12898123 0.99050623 0.047552638 0.0072622271
0.055573948 -0.5 -0.0047191083 -0.31290492 0.94615495 0.082953207 0.019332804
0.065691218 -0.49690458 -0.00584355 -0.61188453 0.7759093 0.15349929 0.039090361
0.071446888 -0.49188676 -0.0053920853 -0.80208904 0.58723897 0.10864399 0.05451389
-0.070294857 -0.48357791 -0.0020887025 0.95794529 0.28088486 0.058689509 0.043976352
-0.06819658 -0.48556551 -0.0065920185 0.88172519 0.43424118 0.18437789 0.047345947
0.076093718 -0.48569229 -0.0056558717 -0.91446298 0.38664731 0.11942051 0.040018838
-0.068033345 -0.47335503 -0.0067810505 0.98735547 0.045473229 0.15185983 0.030236019
0.076274619 -0.47451273 -0.0062351357 -0.98820323 0.083051123 0.12867337 0.02481438
-0.067460105 -0.46494946 -0.0042382693 0.99342281 -0.080209404 0.081716716 0.022561386
0.075015455 -0.46316296 -0.0052862144 -0.98838353 -0.061408516 0.13902164 0.019393835
-0.066081733 -0.45469442 -0.00507362 0.9913007 -0.1033934 0.081441738 0.021612223
0.074104458 -0.45453316 -0.004784443 -0.98046786 -0.085227922 0.17725366 0.022911709
-0.06524118 -0.44635338 -0.0044735875 0.98581558 -0.1219182 0.11534116 0.023114771
0.073023096 -0.44481474 -0.0046892771 -0.98496741 -0.078961946 0.15363643 0.02865991
-0.063958377 -0.43496653 -0.0049511958 0.98723876 -0.088872708 0.13214117 0.02321546
0.072745815 -0.4353815 -0.0010832564 -0.99632484 -0.085577853 0.003644096 0.025563277
-0.062843069 -0.42433587 -0.0052843476 0.98336166 -0.093577877 0.15570162 0.029310822
0.069879942 -0.42206764 -0.0090627437 -0.94774705 -0.075687952 0.30991438 0.024949078
0.070991375 -0.42304894 -0.0038635794 -0.98608565 -0.089645848 0.13999556 0.034011383
-0.062010776 -0.41441855 -0.0049638832 0.98289692 -0.056443784 0.17529346 0.028126944
0.06953223 -0.41461018 -0.0074089533 -0.96263009 -0.11695386 0.2442643 0.02224642
0.070682272 -0.41599402 -0.0021914521 -0.98612988 -0.12872496 0.10477445 0.032328859
-0.061390772 -0.40463778 -0.0039656335 0.9954381 -0.030935062 0.090255097 0.032445502
0.069038391 -0.40464652 -0.0056840163 -0.98018104 -0.10011397 0.17094527 0.02759221
0.070233777 -0.40733641 -0.00065904757 -0.9896723 -0.12952816 0.061410658 0.026697719
-0.060557209 -0.39331186 -0.0037607574 0.98762155 -0.098759897 0.12186179 0.034555662
-0.059756681 -0.39290872 -0.0076890285 0.95390821 -0.063842833 0.29322883 0.025102763
0.068174265 -0.39472669 -0.0061863903 -0.98657465 -0.10538536 0.12475678 0.02717296
-0.060158025 -0.38404658 -0.0026338855 0.99345344 -0.079766557 0.081777461 0.032478083
-0.059376713 -0.38474154 -0.0068381499 0.96623313 -0.093152039 0.24024212 0.024949817
0.067368336 -0.38348418 -0.0063899518 -0.98222733 -0.078935646 0.17028971 0.026024766
-0.059371993 -0.37737498 -0.0044525494 0.986516 -0.11500089 0.11645205 0.032422706
0.067290187 -0.37706077 -0.0046913293 -0.9865914 -0.059476718 0.15198669 0.022350008
