ply
format ascii 1.0
comment PCL generated
element vertex 560
property float x
property float y
property float z
element camera 1
property float view_px
property float view_py
property float view_pz
property float x_axisx
property float x_axisy
property float x_axisz
property float y_axisx
property float y_axisy
property float y_axisz
property float z_axisx
property float z_axisy
property float z_axisz
property float focal
property float scalex
property float scaley
property float centerx
property float centery
property int viewportx
property int viewporty
property float k1
property float k2
end_header
-0.16190936 -0.51053596 -0.61420465
-0.064491667 -0.51609373 -0.63199806
0.057654787 -0.52025867 -0.63306344
0.16806163 -0.50720239 -0.62021816
-0.17083302 -0.40766197 -0.61582959
-0.063643456 -0.40797958 -0.63536948
0.060187966 -0.41270682 -0.6358034
0.15929244 -0.40772629 -0.62009978
-0.17201848 -0.28286532 -0.61743647
-0.06264542 -0.2803449 -0.6381287
0.05975417 -0.28214711 -0.63992745
0.1643405 -0.28049791 -0.62065786
-0.16928509 -0.15666243 -0.61590576
-0.062884688 -0.15656005 -0.63685524
0.067293286 -0.15443812 -0.63989532
0.16468151 -0.15471174 -0.61981082
-0.16272308 -0.028513093 -0.61282837
-0.061868954 -0.029297721 -0.62942797
0.069208391 -0.026493181 -0.62827301
0.16554168 -0.031844001 -0.61421758
-0.14846754 0.089223661 -0.60903496
-0.059063714 0.10067901 -0.61765784
0.061690297 0.097823888 -0.61892956
0.14533043 0.092976406 -0.61093718
-0.13699916 0.18023771 -0.60222
-0.047847547 0.20393136 -0.60738105
0.041697521 0.19754645 -0.60983586
-0.40026501 -0.50852817 -0.48900479
-0.3178032 -0.51495707 -0.52777332
-0.20591463 -0.52464622 -0.56205475
-0.071321763 -0.52979791 -0.57368124
0.058416076 -0.52115232 -0.57254851
0.19617967 -0.52181029 -0.56161761
0.30972537 -0.5162245 -0.52546757
0.38792488 -0.50880402 -0.48636299
-0.39956954 -0.40452763 -0.48653305
-0.31701237 -0.40728366 -0.53667271
-0.20546956 -0.40815261 -0.55850148
-0.066064432 -0.40647578 -0.55825418
0.06036282 -0.40690389 -0.55739897
0.20890377 -0.40643749 -0.55360371
0.31690541 -0.40952003 -0.53066653
0.38784868 -0.38190019 -0.48556
-0.40066299 -0.28151077 -0.48512375
-0.31828016 -0.27889234 -0.53966087
-0.20985839 -0.28203908 -0.55055481
-0.063761346 -0.28520453 -0.54996979
0.058917288 -0.282397 -0.55109966
0.20377347 -0.27962145 -0.54772282
0.31436476 -0.28260478 -0.5344283
0.38923943 -0.3180356 -0.48548138
-0.39856797 -0.15786766 -0.48639297
-0.3205182 -0.15247907 -0.53981596
-0.21163251 -0.15432315 -0.55953097
-0.066922382 -0.16430137 -0.54355025
0.065451846 -0.16135149 -0.54470223
0.20299184 -0.1545444 -0.54789424
0.31159487 -0.15185866 -0.52771646
0.38031065 -0.14797589 -0.48490381
-0.39026523 -0.029170152 -0.48563999
-0.31886476 -0.026502896 -0.53248942
-0.20749052 -0.031362344 -0.56319559
-0.056593679 -0.041158255 -0.54038072
0.058159281 -0.043288592 -0.54573435
0.20708154 -0.027623843 -0.56175512
0.3071714 -0.026592914 -0.52480608
-0.39061695 0.074310146 -0.47839838
-0.32047367 0.09965384 -0.52110422
-0.20312631 0.10040556 -0.57234889
-0.085456982 0.12052892 -0.55233014
0.074231818 0.11474405 -0.54495281
0.19613272 0.10411555 -0.57143694
0.30559602 0.095733941 -0.51947641
-0.30960798 0.22257662 -0.50935328
-0.19264562 0.22848237 -0.56493849
-0.067257956 0.23558187 -0.58167046
0.065405861 0.23788276 -0.57176363
0.18979949 0.2294085 -0.55333537
0.28655469 0.21641359 -0.5038079
-0.28340128 0.34869096 -0.4953149
-0.19182028 0.35746512 -0.5352248
-0.064868242 0.35566887 -0.56829566
0.060754504 0.35583115 -0.56054932
0.18539324 0.357467 -0.52097875
0.27941918 0.33389956 -0.48709655
-0.26648498 0.44395745 -0.48628062
-0.18337536 0.47411713 -0.50234562
-0.068104558 0.48453194 -0.51694703
0.058008008 0.47072461 -0.51825249
0.1567072 0.45678666 -0.50183493
0.26009318 0.42687881 -0.47553366
-0.15925153 0.55952531 -0.48106277
-0.039003789 0.56312263 -0.48413181
0.011421992 0.63694322 -0.47675765
-0.51581198 -0.5125199 -0.35411972
-0.44343415 -0.51626325 -0.40738094
-0.34351107 -0.52032655 -0.44059265
0.34156215 -0.50665706 -0.44081789
0.4359431 -0.51181066 -0.40629524
0.51014781 -0.49630368 -0.35111469
-0.51550108 -0.38178718 -0.36180931
-0.45080167 -0.4114641 -0.40816975
-0.34161219 -0.40477872 -0.4338268
0.32307336 -0.40183923 -0.42671907
0.42375621 -0.41308007 -0.40699494
-0.51726955 -0.26838067 -0.35996932
-0.45531544 -0.28144398 -0.41069669
-0.33415955 -0.28312689 -0.4378655
0.24378426 -0.27229759 -0.47164655
0.33106512 -0.27145952 -0.42143917
0.42492494 -0.28027219 -0.41168272
-0.52248269 -0.15386605 -0.34967232
-0.45534712 -0.1518846 -0.40905428
-0.33093333 -0.16032515 -0.4264372
-0.24787721 -0.10870281 -0.47346568
0.24353936 -0.1483424 -0.46139228
0.32896408 -0.1571863 -0.42182624
0.41306272 -0.15232077 -0.40017086
-0.51719761 -0.089157581 -0.35634983
-0.44898051 -0.026926715 -0.41602671
-0.32174373 -0.021290388 -0.42193997
0.33806443 -0.027448099 -0.43243033
0.40673986 -0.030157913 -0.37807524
-0.44067833 0.10054857 -0.40776449
-0.33670098 0.10682748 -0.43108922
-0.22965001 0.1148078 -0.46743631
0.23308596 0.10591403 -0.46372545
0.33780703 0.10046284 -0.421395
0.39328542 0.10192078 -0.3674767
-0.42849419 0.22198862 -0.40075445
-0.34490684 0.23499072 -0.43176425
-0.1979551 0.23701885 -0.43966442
-0.072530508 0.26032618 -0.46182317
0.089695059 0.27703848 -0.45316654
0.18922938 0.247272 -0.42753667
0.32449341 0.23333362 -0.41084146
0.38751444 0.17941964 -0.36492574
-0.41341963 0.3444263 -0.37853163
-0.34381258 0.35816604 -0.43543953
-0.1909318 0.33435175 -0.39381391
-0.062101908 0.33946002 -0.39036113
0.060313795 0.33830449 -0.39859563
0.18482941 0.3396222 -0.39741468
0.32608339 0.35075545 -0.41978198
0.38208541 0.34621957 -0.38676959
-0.39572996 0.44176018 -0.3604033
-0.32039332 0.48062959 -0.41154289
-0.22174197 0.51893532 -0.45849782
0.055284906 0.52003229 -0.46429819
0.18629606 0.46969616 -0.45815921
0.27217788 0.45873272 -0.42453378
-0.2907739 0.58829987 -0.38034821
-0.19653691 0.59773886 -0.43378764
-0.07275378 0.60741037 -0.44967955
0.055626754 0.6142748 -0.44189906
0.165874 0.63481349 -0.38997656
-0.53283626 -0.50995678 -0.27750456
-0.47664055 -0.52229369 -0.30052882
0.46922719 -0.51345789 -0.29578197
0.53189099 -0.50808358 -0.27378321
-0.53835213 -0.40844324 -0.27928293
-0.46749011 -0.40964764 -0.29685718
0.46226889 -0.4057613 -0.29984462
0.51893538 -0.42550775 -0.25588578
-0.54327595 -0.27902144 -0.28095716
-0.47001648 -0.27765816 -0.30335581
0.461009 -0.27850959 -0.29783297
0.51339883 -0.28488067 -0.24586807
-0.54333174 -0.15302607 -0.27989966
-0.45889634 -0.1654461 -0.30125701
0.37083983 -0.16982342 -0.335751
0.46551931 -0.14985426 -0.29059339
0.5103026 -0.16511463 -0.23435728
-0.54029703 -0.027651224 -0.27523714
-0.46982101 -0.025274467 -0.30999374
0.3732717 -0.0041851178 -0.33906519
0.45757884 -0.026009846 -0.28246444
0.51355678 -0.058489759 -0.22277103
-0.53217161 0.096708268 -0.26533937
-0.47044873 0.10122792 -0.30618924
-0.37463138 0.11259523 -0.34596097
0.36427078 0.10167013 -0.32303059
0.43129316 0.095652483 -0.28491378
-0.52239174 0.21507274 -0.25047553
-0.48041928 0.23033744 -0.30386066
-0.36371717 0.24149255 -0.3065713
0.33898115 0.24354494 -0.29586911
0.41810939 0.21372139 -0.2746467
-0.51482952 0.31409806 -0.23004203
-0.46476486 0.35459059 -0.28535265
-0.30752811 0.33096099 -0.279176
-0.18932696 0.3519243 -0.28180987
-0.063624002 0.35415077 -0.28231436
0.054410275 0.3544108 -0.28478247
0.18851639 0.34997869 -0.28796834
0.30382422 0.32741916 -0.28266966
0.40941423 0.30196369 -0.25054973
-0.4245232 0.47933546 -0.28196955
-0.37292436 0.52269751 -0.32871807
-0.39889699 0.58363062 -0.24493356
-0.34863675 0.6034947 -0.2975077
0.22057968 0.63592541 -0.33199668
0.26429683 0.63415921 -0.31306666
-0.55414063 -0.51032311 -0.1590157
-0.50226426 -0.51293248 -0.18364318
0.49344465 -0.50074524 -0.16721891
0.55767524 -0.51360261 -0.15682538
-0.56321329 -0.40632069 -0.15300958
-0.49838293 -0.4102003 -0.18040852
0.4741827 -0.406849 -0.16526504
0.54559028 -0.41004542 -0.15601929
-0.57441515 -0.27781445 -0.15287091
-0.49884376 -0.29623067 -0.18142726
0.46448436 -0.29378036 -0.15851723
0.53124994 -0.2819806 -0.15793665
-0.57522982 -0.15342365 -0.15061612
-0.49962091 -0.15393773 -0.18307681
0.46509627 -0.15209755 -0.16331755
0.52769381 -0.15406653 -0.15477858
-0.57010704 -0.028577056 -0.15462448
-0.49528041 -0.027005006 -0.17016466
0.4807305 -0.010260504 -0.17122729
0.51968998 -0.038939934 -0.13851072
-0.56163311 0.10250005 -0.15941261
-0.47078016 0.095243447 -0.16020583
0.4713746 0.099809498 -0.15830614
0.50856543 0.050371457 -0.13898011
-0.54177791 0.22835693 -0.15572049
-0.43654248 0.24047714 -0.14808665
-0.38019684 0.29084155 -0.11945756
0.36047196 0.26780361 -0.18810721
0.44631526 0.22697872 -0.15856166
-0.52180952 0.33985859 -0.14474501
-0.49252298 0.37492111 -0.1745524
-0.31691468 0.33712009 -0.16412573
-0.19258651 0.35800242 -0.15643193
-0.065151431 0.36302552 -0.15869851
0.057576414 0.36577305 -0.15985273
0.19293895 0.36389279 -0.15923603
0.3085773 0.34141186 -0.15666936
0.41845044 0.3437795 -0.13540392
-0.51289153 0.42439112 -0.11168124
-0.46719718 0.48421305 -0.16079126
-0.41531533 0.59714836 -0.15739177
-0.37223774 0.61731505 -0.2029096
0.32224646 0.63802063 -0.17111741
-0.55447155 -0.50362664 -0.033274889
0.4959676 -0.50349724 -0.029985368
0.56182891 -0.5128535 -0.030850083
-0.56882745 -0.40879476 -0.029166356
0.48457241 -0.40945932 -0.025291726
0.55809164 -0.40922907 -0.029883385
-0.57500732 -0.28003463 -0.025697529
0.4691934 -0.28409547 -0.024493143
0.54716772 -0.278126 -0.030447438
-0.57828313 -0.15307932 -0.024639472
0.46429449 -0.14988269 -0.014917821
0.54506409 -0.15259735 -0.028848365
-0.57071376 -0.027096447 -0.030148074
0.46184519 -0.010910153 -0.02698113
0.53715348 -0.024177376 -0.030671507
-0.56389582 0.097314276 -0.03149952
-0.50699824 0.10267399 -0.037495956
0.33442932 0.094816849 0.025667384
0.47952011 0.11601305 -0.033686027
0.51971364 0.08583574 -0.016241848
-0.54598188 0.23259658 -0.030321181
-0.45855016 0.2483741 -0.03236486
-0.37713733 0.28534314 -0.0081602782
0.3656038 0.1916116 -0.0064480752
0.46825311 0.22726886 -0.030122802
0.51537263 0.19731635 -0.028050721
-0.5244714 0.34841806 -0.03245528
-0.48162216 0.36961353 -0.022632122
-0.31467628 0.32284999 -0.036040634
-0.18471792 0.36386165 -0.032255992
-0.059512962 0.37427157 -0.034633815
0.054299552 0.37532222 -0.051535115
0.18562472 0.37085178 -0.06707184
0.31773013 0.37724373 -0.069563732
0.4359085 0.35787717 -0.033626229
-0.51443386 0.42126012 -0.073837548
-0.46899003 0.48764616 -0.027415141
0.41190505 0.47970617 -0.028567195
-0.41996068 0.59932691 -0.034327537
0.35607731 0.61548138 0.012017161
0.39039516 0.60886812 0.012713179
-0.54030901 -0.50107288 0.094102368
-0.49569616 -0.49876285 0.1295962
0.47880751 -0.51230675 0.11031909
0.54808629 -0.51345962 0.091662608
-0.55138278 -0.40809357 0.095473915
-0.49950552 -0.39517972 0.1232767
0.46178585 -0.40922749 0.10050632
0.54396182 -0.40971646 0.098237738
-0.55997133 -0.27945128 0.1002638
-0.49375916 -0.28684345 0.13049035
0.45078063 -0.28896937 0.10415949
0.53614151 -0.28169721 0.093563594
-0.55749363 -0.15552977 0.1031848
-0.49929473 -0.16004147 0.12739864
0.10158709 -0.096073017 0.15371305
0.19047125 -0.10455559 0.14515859
0.44141233 -0.15487206 0.12066276
0.52992749 -0.15295136 0.094102599
-0.55302691 -0.025787111 0.098521873
-0.49997851 -0.025389556 0.10664532
-0.053941105 -0.015227206 0.13610521
0.062896483 -0.021645769 0.10929661
0.18892477 -0.029620405 0.095237039
0.3141979 -0.0032275282 0.098650157
0.45988214 -0.015992314 0.11850271
0.52412343 -0.028168384 0.089772582
-0.54018694 0.10328126 0.096331626
-0.49353158 0.10290381 0.098373652
0.085510559 0.066021383 0.078827113
0.19202942 0.050998539 0.055216677
0.36843523 0.057396412 0.06634818
0.47876114 0.10912278 0.10690664
0.5162589 0.082272023 0.068458751
-0.52834857 0.21982582 0.082399324
-0.48209766 0.23916593 0.11793093
-0.36238816 0.28475776 0.090791553
0.47116742 0.22885816 0.098365039
-0.52060771 0.31990129 0.053116135
-0.47821307 0.353084 0.10246361
-0.31085399 0.31611037 0.093883336
-0.20090407 0.35280803 0.084186852
-0.08533369 0.37612522 0.046347544
0.0087516 0.40127367 0.034634754
0.37068582 0.38791338 0.12267657
0.44063774 0.35770369 0.097055718
-0.44225642 0.48566154 0.099087894
-0.37477687 0.52590322 0.14669989
0.36404014 0.5132072 0.13057652
0.40555927 0.47454697 0.088165633
-0.40528369 0.58901101 0.080084302
-0.34828374 0.61477172 0.1265171
0.23359741 0.59642208 0.1573112
0.333729 0.60111743 0.10042739
0.38664907 0.55653709 0.066330604
-0.52005726 -0.4974463 0.19209783
-0.46779621 -0.50123841 0.23674588
0.36372545 -0.49788022 0.27756175
0.45276472 -0.51575208 0.23321484
0.52349144 -0.50113344 0.19785617
-0.52749562 -0.39536041 0.1925244
-0.47163025 -0.40718654 0.2375797
-0.37950677 -0.38085574 0.28216624
0.36251703 -0.40819764 0.26333907
0.45795095 -0.40349674 0.23377624
0.5173732 -0.41251537 0.18821621
-0.52924746 -0.27865565 0.2005727
-0.46692291 -0.28043926 0.24116874
-0.36921835 -0.2905165 0.27510697
0.19808359 -0.23332137 0.27059111
0.32838443 -0.26475188 0.25888842
0.46063319 -0.27753875 0.2288132
0.51207966 -0.28141543 0.17817578
-0.52901429 -0.15435439 0.19709298
-0.47226721 -0.15569876 0.24455532
-0.36368522 -0.19780929 0.28133801
-0.1610695 -0.11983402 0.26290143
-0.061165284 -0.14116731 0.2490004
0.05960685 -0.15273114 0.23676801
0.18288274 -0.16106237 0.21869086
0.31066334 -0.16159588 0.21462724
0.46320534 -0.15320338 0.22841945
0.51128137 -0.17102246 0.16959947
-0.52297354 -0.032665428 0.18931104
-0.47459888 -0.026130069 0.23787664
-0.16797598 -0.048466753 0.21811506
-0.072276637 -0.066061586 0.18719058
0.039676193 -0.073203877 0.18095611
0.34028408 -0.063722938 0.18670622
0.45646116 -0.028430421 0.22292995
0.5090403 -0.013733435 0.16155183
-0.5199663 0.076084755 0.17417946
-0.46493262 0.102843 0.23320907
-0.37715399 0.092806369 0.27687839
0.37824339 0.12785639 0.2759673
0.43656224 0.098385528 0.22477868
-0.4478572 0.22651729 0.22289899
-0.37570542 0.22697553 0.27697983
0.36596924 0.23794542 0.26801312
0.41886613 0.22674537 0.21736807
-0.42563108 0.35168219 0.2138854
-0.33832759 0.37301528 0.25394773
-0.2061062 0.33572298 0.23147053
-0.12465075 0.35226092 0.24418896
0.34447271 0.3692663 0.24879116
0.39875427 0.33972448 0.20151654
-0.40619808 0.46363744 0.1918714
-0.33551207 0.49426752 0.23547417
-0.24634242 0.51172298 0.27640796
0.23737822 0.51569206 0.27304527
0.32061121 0.4781794 0.22184284
0.38806185 0.45773152 0.16508983
-0.30616164 0.59404576 0.2122367
-0.21638903 0.60747218 0.255896
-0.060954522 0.61339152 0.26463002
0.059023887 0.60037029 0.28321767
0.20629692 0.60036075 0.24802873
0.29187739 0.59298599 0.19757584
-0.41690964 -0.50315142 0.33506855
-0.33459729 -0.51195621 0.37156373
-0.23386599 -0.50192338 0.39948612
0.21105649 -0.50831151 0.39429572
0.32532665 -0.51592368 0.3619884
0.42111364 -0.51270413 0.33462825
-0.42783511 -0.403938 0.33444461
-0.33599994 -0.40555519 0.36234316
-0.21677464 -0.39693278 0.39788401
-0.072665378 -0.35861829 0.40778929
0.080957204 -0.37900725 0.39669555
0.18049316 -0.39355662 0.37960607
0.32841942 -0.40302333 0.3610664
0.41886035 -0.40902707 0.32971823
-0.43153355 -0.27494237 0.33879167
-0.33414373 -0.27993786 0.3630144
-0.17870824 -0.27714518 0.38343412
-0.062425531 -0.27492711 0.36911023
0.057173673 -0.27739197 0.34285015
0.17886947 -0.29438716 0.3221052
0.3272709 -0.2869775 0.36298078
0.41170195 -0.27997747 0.32379815
-0.42660978 -0.14989439 0.33230299
-0.33966362 -0.14686309 0.3669095
-0.18336542 -0.16400106 0.33085012
-0.074395664 -0.19248088 0.312419
0.025322398 -0.20748681 0.30341858
0.34204608 -0.15089314 0.37599719
0.40763518 -0.158674 0.31674707
-0.42217487 -0.030300338 0.32052124
-0.34189934 -0.020426948 0.37243581
-0.23274918 -0.052508663 0.33064866
0.32926041 -0.025581408 0.36684197
0.40011466 -0.041774016 0.30905759
-0.41013306 0.095857754 0.31148148
-0.32630885 0.10393865 0.37080032
0.236375 0.15804794 0.40231597
0.31700444 0.10267377 0.35289487
0.38797677 0.083618879 0.29785547
-0.39978337 0.21068551 0.30078909
-0.32225025 0.22921453 0.35413605
-0.2261948 0.24479081 0.40332425
-0.043973528 0.27591664 0.40075088
0.078581996 0.27055347 0.37504584
0.22056286 0.24281608 0.39250168
0.30891725 0.22934355 0.33505377
-0.38881713 0.31484589 0.29372874
-0.31168169 0.35100445 0.33061314
-0.19690183 0.35767865 0.37464294
-0.072926 0.38084233 0.39457038
0.038000505 0.35609621 0.3906081
0.20219634 0.36132747 0.36386073
0.29010206 0.34794992 0.31548566
-0.29171762 0.46787933 0.31182542
-0.19553109 0.47985771 0.34675837
-0.066853419 0.48606008 0.36343622
0.058735501 0.49978331 0.34042159
0.1883484 0.4804647 0.32106256
0.26708367 0.44974175 0.30174989
-0.27512813 0.55412245 0.29861978
-0.18046236 0.58970749 0.31055623
-0.067782976 0.5943383 0.3255108
0.063211322 0.59730315 0.31784832
0.15532462 0.58433092 0.29980707
-0.29259253 -0.50334775 0.44206023
-0.18730204 -0.51372671 0.46786696
-0.066963635 -0.51440167 0.49187255
0.05974244 -0.51537198 0.49230814
0.18270087 -0.51422763 0.46782643
0.29883668 -0.50926 0.44259334
-0.30047941 -0.40964606 0.43877614
-0.1891546 -0.41092241 0.47532356
-0.066041119 -0.41023004 0.48945266
0.054618824 -0.41360161 0.48996872
0.18553628 -0.41247025 0.47791892
0.2879602 -0.40996447 0.43830901
-0.3018339 -0.28248143 0.43898726
-0.19195741 -0.28343496 0.48262674
-0.065365136 -0.27918118 0.50717914
0.045702185 -0.28726378 0.51880002
0.20750552 -0.30100411 0.49907339
0.27895674 -0.28432384 0.44339466
-0.29566386 -0.15751499 0.43927342
-0.19525425 -0.15427552 0.47989535
-0.066075683 -0.15309082 0.50153375
0.056907926 -0.15312849 0.51143736
0.18853116 -0.14542076 0.48075396
0.27864733 -0.15932211 0.43492407
-0.28570461 -0.035642799 0.43232322
-0.18950948 -0.025930125 0.4681989
-0.060787626 -0.027791981 0.49197096
0.062309023 -0.026766386 0.48518378
0.17980544 -0.031483512 0.46174675
0.27002779 -0.026397932 0.42587906
-0.27221075 0.080885172 0.42440635
-0.18987569 0.1002485 0.44697422
-0.062612243 0.10155094 0.473755
0.057947658 0.099188514 0.46588367
0.18577684 0.098666325 0.44408756
-0.17746079 0.21689604 0.43384379
-0.066748187 0.22631152 0.44567406
0.058184355 0.23135246 0.47363567
0.17995557 0.22228724 0.4745509
-0.15036927 0.31810826 0.4213174
-0.06824562 0.32891479 0.42662859
0.042645749 0.34799767 0.47093737
0.17420022 0.31906396 0.43698686
0.077140331 0.42008612 0.41521144
0.11564735 -0.35235673 0.63706809
0.1857885 -0.36521 0.62222779
0.27254772 -0.35714757 0.64353055
0.095910519 -0.29263258 0.59335035
0.18412508 -0.30758396 0.57856947
0.28153536 -0.31459886 0.62100422
0.10718626 -0.1895823 0.55828226
0.133653 -0.18786305 0.55756849
0.095447645 0.25195503 0.60233909
0.1884772 0.21795493 0.61324602
0.26161179 0.22357328 0.6413582
0.089351937 0.3182964 0.57824105
0.14822106 0.30683056 0.60253918
0.11502291 -0.35241842 0.68102044
0.19079648 -0.36748984 0.73035908
0.28447324 -0.35832885 0.72935313
0.11903593 -0.31448746 0.72390687
0.1427747 -0.29918942 0.74708688
0.32919723 -0.29426536 0.74503112
0.38488269 -0.25053513 0.79372293
0.33897617 -0.21049063 0.75248808
0.18820152 0.13479216 0.76096493
0.26473254 0.14065219 0.78091168
0.1127179 0.21869601 0.72353363
0.17971556 0.21610315 0.73010206
0.26155657 0.19688776 0.72424853
0.21092407 -0.3495706 0.80295587
0.25982139 -0.34960556 0.80266142
0.1213702 -0.3140001 0.80306149
0.18006191 -0.28801134 0.859716
0.31883195 -0.27724794 0.85319781
0.38586751 -0.23529938 0.83927691
0.16966991 -0.1568521 0.87646735
0.36172792 -0.15174481 0.87797612
0.38650155 -0.16561478 0.86325616
0.18240544 -0.024200305 0.88019717
0.33114359 -0.027833726 0.89001441
0.18900448 0.10800643 0.86324465
0.28708956 0.095620617 0.86798733
0.17054141 0.18350013 0.82090777
0.20072587 -0.2356436 0.9319641
0.27511963 -0.22678837 0.93192434
0.1951458 -0.15435982 0.95327377
0.29920453 -0.15062793 0.94222498
0.20061933 -0.024247311 0.9490242
0.28847814 -0.03247061 0.94139534
0.21156363 0.069826446 0.93285441
0.27652925 0.054473571 0.9323222
0 0 0 1 0 0 0 1 0 0 0 1 0 0 0 0 0 560 1 0 0
