# .PCD v0.7 - Point Cloud Data file format
VERSION 0.7
FIELDS x y z normal_x normal_y normal_z curvature
SIZE 4 4 4 4 4 4 4
TYPE F F F F F F F
COUNT 1 1 1 1 1 1 1
WIDTH 570
HEIGHT 1
VIEWPOINT 0 0 0 1 0 0 0
POINTS 570
DATA ascii
0.043987233 -0.14544354 -0.22174625 -0.485468 0.68543226 0.54268175 0.00019508389
0.050621472 -0.14117038 -0.22121514 -0.50632185 0.67229825 0.54004925 0.00023493503
-0.060639001 -0.131915 -0.22320057 0.52905035 0.65647435 0.53772414 0.00025789047
-0.055067744 -0.13478713 -0.22498116 0.51239085 0.66640484 0.54162735 0.00020345789
-0.046062797 -0.13872798 -0.22845092 0.49128434 0.67671227 0.5483613 0.00021879181
0.047252748 -0.13786532 -0.22849584 -0.49561384 0.67356002 0.54834634 0.0002534157
0.055105519 -0.13411692 -0.22578838 -0.52094591 0.65981716 0.54153174 0.00022410991
0.061111197 -0.13282692 -0.22158226 -0.53571033 0.655285 0.53255606 0.00036424081
-0.07098563 -0.12334857 -0.22310026 0.59041142 0.62072444 0.51586396 0.0016111943
-0.065913916 -0.1262842 -0.22488812 0.56331879 0.63505757 0.52855831 0.00080628681
-0.059101984 -0.12786393 -0.22982545 0.52570957 0.6516642 0.54677528 0.00032225289
0.06436789 -0.12664767 -0.22601734 -0.55077875 0.64178103 0.53362894 0.00052110857
0.072351888 -0.12275769 -0.22234437 -0.59721053 0.61710113 0.51237279 0.0021243512
-0.081065044 -0.11185536 -0.224959 0.7057699 0.53808755 0.46081519 0.007974064
-0.075445712 -0.11643885 -0.22634813 0.63639438 0.58336717 0.50466317 0.0035573754
0.069607019 -0.11939818 -0.22924387 -0.58129478 0.6177206 0.5296393 0.001290877
0.076687217 -0.11625401 -0.22533043 -0.64908481 0.5813607 0.49062064 0.0048750052
0.080819868 -0.11497238 -0.22176541 -0.70256561 0.54004687 0.46341217 0.007316554
-0.090790153 -0.10020045 -0.22146073 0.86964929 0.36610001 0.33118117 0.011064302
-0.08348605 -0.10721362 -0.22685297 0.73628998 0.50875181 0.44614875 0.0081488164
0.084760651 -0.1061789 -0.22605753 -0.73822987 0.50302887 0.44942036 0.0097430777
0.090486057 -0.1022661 -0.2200433 -0.84646797 0.40313798 0.34780988 0.012173717
-0.091537878 -0.093831152 -0.22497886 0.88162404 0.35054025 0.31600732 0.015293192
-0.089021534 -0.098208927 -0.22723727 0.859308 0.37863329 0.3438409 0.011465337
0.089135267 -0.097367764 -0.22793214 -0.84938741 0.39309606 0.3521598 0.012118018
0.091720507 -0.094202504 -0.2239261 -0.88956374 0.33161834 0.31417456 0.013474636
-0.093562759 -0.084990889 -0.22594839 0.92808509 0.27371779 0.25246122 0.011294183
0.093397297 -0.08396244 -0.22658439 -0.9352358 0.24167907 0.25869921 0.0097142719
-0.09491659 -0.074723013 -0.22417788 0.98287022 0.12014003 0.13975862 0.0028608241
0.094940446 -0.074878849 -0.22393432 -0.97781688 0.14014423 0.15567186 0.0053093503
-0.095466822 -0.064046137 -0.22550033 0.98894393 0.092432894 0.11595714 0.0025400957
0.09553495 -0.065959305 -0.22381844 -0.99105167 0.070470177 0.11336045 0.0016201523
-0.095799454 -0.054740191 -0.22530538 0.99627239 0.026461082 0.08210393 0.00095557712
0.095758766 -0.05525361 -0.2256422 -0.99578536 0.034279022 0.085067853 0.00093896064
-0.095956706 -0.046236653 -0.22516577 0.99820113 0.0046544173 0.059772689 0.00036370158
0.095863752 -0.044626433 -0.22649424 -0.99815297 0.0031312292 0.060670659 0.00039408577
-0.095621385 -0.032416422 -0.22385772 0.99897432 -0.039990667 0.021236429 0.00036404756
0.09561228 -0.032873847 -0.2245557 -0.99894136 -0.038296834 0.02548602 0.00039981658
-0.095344476 -0.024481596 -0.22386634 0.99833781 -0.056850199 0.0094701778 0.00055248378
0.095356517 -0.026015932 -0.22495718 -0.99877995 -0.04639563 0.016911998 0.00053704181
-0.094634466 -0.014706121 -0.22344351 0.99625844 -0.085954636 -0.0089906175 0.00072424696
0.094610952 -0.013850809 -0.22621083 -0.99679548 -0.079902537 -0.0037891895 0.00055525982
-0.093824819 -0.0058144168 -0.22535151 0.99365473 -0.10801838 -0.031342547 0.00063940277
0.093583867 -0.0034871942 -0.22440493 -0.99309969 -0.11105963 -0.037666824 0.00080584612
-0.092729218 0.0049882513 -0.22551116 0.98994499 -0.1329985 -0.048169386 0.00056162238
0.092634998 0.0052482639 -0.2245934 -0.98624599 -0.15140566 -0.066295177 0.00092576089
-0.090946503 0.015396529 -0.22434098 0.97878176 -0.18199731 -0.094144873 0.0019477552
0.0912719 0.014389643 -0.22581834 -0.98331666 -0.1648833 -0.0768236 0.0011417019
-0.090157434 0.020710763 -0.22678621 0.97315842 -0.20449588 -0.10556612 0.0020861172
-0.089172997 0.025264902 -0.22557649 0.96051282 -0.23831068 -0.14360797 0.0025244933
0.089165755 0.0251335 -0.22522168 -0.96191978 -0.23672915 -0.13663656 0.0032880958
-0.086965069 0.0335612 -0.22432929 0.93793863 -0.28996289 -0.19024396 0.003881549
0.087208077 0.033499546 -0.22553264 -0.94307905 -0.28267479 -0.17520516 0.0028684689
-0.083200216 0.044942502 -0.22503455 0.8912223 -0.36839929 -0.26458427 0.0081208544
0.083607152 0.043705285 -0.224732 -0.89390361 -0.36076337 -0.26605642 0.0075178309
-0.081279583 0.051455002 -0.22664526 0.86350036 -0.40047154 -0.3065773 0.0088539561
-0.077440724 0.0564292 -0.22411838 0.77859706 -0.49653032 -0.3837243 0.01170241
0.077244878 0.056031685 -0.22314452 -0.78566182 -0.49536324 -0.37060872 0.0099641085
0.080997512 0.052763443 -0.22724369 -0.85214603 -0.40791792 -0.32779574 0.0084186392
-0.072741292 0.063571751 -0.22358936 -0.71700281 0.54596043 0.43339846 0.0069080484
-0.068953797 0.069054663 -0.22495638 -0.66758734 0.58347529 0.46247551 0.0092042815
0.068573296 0.067269154 -0.22230148 0.62914556 0.60031581 0.49375778 0.0094373208
0.074172139 0.06435167 -0.22763181 -0.75006193 -0.53088886 -0.39441615 0.0083553959
-0.06305664 0.07480859 -0.22544885 -0.55358499 0.63444173 0.53946948 0.009278913
-0.054640945 0.078393094 -0.22257076 -0.43870792 0.6957922 0.56869006 0.0065212036
0.057707269 0.077683181 -0.22374348 0.45834327 0.68515497 0.56611317 0.0068299952
0.062765457 0.074056275 -0.22420554 0.55562496 0.64216924 0.52810943 0.0096253641
0.070934862 0.070657559 -0.22915441 0.69308621 0.58473313 0.42156681 0.0077136224
-0.057720881 0.081827432 -0.22858983 -0.48072037 0.675304 0.55934995 0.0079617193
-0.045349449 0.084685951 -0.22460057 -0.33004066 0.72614092 0.60315204 0.0028438012
-0.035628024 0.086940572 -0.22361203 -0.20818189 0.75125283 0.62632221 0.0016214143
-0.024763081 0.088527933 -0.22249463 -0.11997943 0.74983549 0.65065485 0.00067308219
-0.015415858 0.088445805 -0.22113416 -0.076159917 0.75317866 0.65339231 0.00063751068
-0.0061737234 0.089176625 -0.22121286 -0.028274933 0.75474274 0.65541136 0.00078134943
0.0058903662 0.089257568 -0.22128128 0.037001759 0.75362033 0.65626764 0.0007780607
0.015911691 0.089074686 -0.22189367 0.081682988 0.75156897 0.65457773 0.00062766712
0.029330533 0.085881285 -0.2206735 0.17319122 0.75019199 0.63813543 0.0019354373
0.035504546 0.087362289 -0.22405915 0.19758745 0.74418473 0.63808173 0.0016476976
0.045691177 0.084712215 -0.2248511 0.34003535 0.71629059 0.60934705 0.0033732147
0.053240005 0.083364949 -0.22756515 0.41859469 0.69492358 0.58468771 0.0058267144
-0.036540862 0.091809064 -0.22946253 -0.23435313 0.73916012 0.6314435 0.0021248774
-0.023650281 0.09310469 -0.22754261 -0.12534261 0.7519936 0.64714366 0.00086377945
-0.01575697 0.093531363 -0.22698618 -0.083458036 0.75381339 0.6517669 0.00074398349
-0.004453924 0.093384877 -0.22589183 -0.015522095 0.75623029 0.65412146 0.00046552005
0.0047221752 0.094391346 -0.22706513 0.02689633 0.75467747 0.65554446 0.00093145901
0.014908426 0.092925899 -0.2262215 0.076717138 0.75246358 0.65415066 0.00082107558
0.023142768 0.092429563 -0.22660862 0.12067588 0.75129455 0.64884037 0.0011337951
0.033207286 0.091796376 -0.22853358 0.19082364 0.74578637 0.63827038 0.0018659313
-0.012942517 -0.17178538 -0.21193302 0.21732859 0.77982032 0.58706772 0.0084950617
-0.0059745377 -0.17390171 -0.21210599 0.15699713 0.80447155 0.57286769 0.0091692954
0.0061480571 -0.17275989 -0.21354616 -0.12085145 0.7876575 0.60414457 0.0088956412
0.011763263 -0.17121993 -0.21334171 -0.19192621 0.77568066 0.60123533 0.010578372
-0.02303692 -0.16561644 -0.21330829 0.3753849 0.73334438 0.56682634 0.0024455553
-0.017264936 -0.16814974 -0.21399808 0.2935732 0.76329613 0.57549447 0.0057603805
-0.0089736916 -0.16790922 -0.21899755 0.18174417 0.78384429 0.59376526 0.0094303675
0.0058646412 -0.1688904 -0.21852297 -0.073350139 0.79417694 0.60324341 0.010688052
0.014710875 -0.16755261 -0.2162569 -0.24597512 0.76238728 0.59854978 0.0078928499
0.023729375 -0.16543378 -0.21300007 -0.40431952 0.72609186 0.55616218 0.00071751326
-0.042710409 -0.15292244 -0.21338612 0.48035982 0.69119036 0.53991699 0.00019278571
-0.035535809 -0.15512253 -0.21681124 0.449586 0.70247841 0.55172145 0.00037823463
-0.029644435 -0.15684548 -0.21937203 0.42234164 0.71131998 0.56182861 0.00085649744
0.036742184 -0.15566836 -0.2150469 -0.45482439 0.7017082 0.54839808 0.00037507084
0.042324275 -0.15212549 -0.21472938 -0.4805966 0.69051349 0.54057193 0.00025355865
-0.061711084 -0.14066525 -0.2110858 0.54595512 0.65789348 0.51875728 0.00038354759
-0.05339621 -0.14584835 -0.21259965 0.50951916 0.67668623 0.53149408 0.00019501678
-0.046079163 -0.14832556 -0.21626094 0.48678717 0.68600059 0.54077864 0.00014798742
0.045321673 -0.14853755 -0.21665402 -0.48666185 0.68763381 0.53881347 0.00019262044
0.054063376 -0.14447206 -0.21369119 -0.51266575 0.67401123 0.53186727 0.00024250262
0.060494695 -0.14077221 -0.21212615 -0.52770078 0.6661517 0.52704257 0.00025718979
-0.065960713 -0.13535303 -0.21337986 0.56150699 0.64877039 0.51362127 0.00089125882
-0.05930103 -0.13921973 -0.21525371 0.52701962 0.66639555 0.52741563 0.00035039475
0.058165196 -0.13752985 -0.21849445 -0.52640182 0.66316253 0.53208697 0.00026581227
0.064768478 -0.13521333 -0.2148231 -0.55565298 0.64898193 0.51968485 0.00069333357
0.071485348 -0.13157949 -0.21216546 -0.59439689 0.62945342 0.50048053 0.0018117266
-0.080952302 -0.12071583 -0.21447214 0.68805313 0.56154412 0.45962059 0.0076209484
-0.074849017 -0.12552917 -0.21605131 0.61519355 0.61575294 0.49232644 0.0023359372
-0.069631264 -0.12773533 -0.21904284 0.58410418 0.62917852 0.51279312 0.0011254764
0.06999255 -0.12700438 -0.21956745 -0.58167768 0.62998772 0.51455462 0.0017850921
0.07464435 -0.1270054 -0.21438113 -0.61085486 0.61402929 0.49982429 0.0020816301
0.081061922 -0.12239779 -0.2122172 -0.68164855 0.57754374 0.44921982 0.0057165348
-0.085058518 -0.11516661 -0.21544838 0.73420095 0.52006727 0.43643913 0.0080966083
0.07920476 -0.11835843 -0.21973889 -0.66088223 0.57227969 0.4855209 0.004988119
0.085166723 -0.11572204 -0.21444851 -0.75238407 0.50324398 0.42504543 0.011644441
-0.09138646 -0.10563474 -0.21345246 0.86261731 0.39059865 0.32144058 0.014504739
-0.087895848 -0.10777788 -0.21905941 0.79070276 0.46394503 0.39942974 0.01371873
0.08832892 -0.10785844 -0.21813415 -0.80608678 0.4483211 0.38630593 0.012059326
0.091334596 -0.10506946 -0.21416411 -0.87203068 0.36389548 0.32732642 0.013982274
-0.093732946 -0.094467223 -0.21531899 0.93787372 0.26311928 0.22618841 0.011055362
0.093849748 -0.094352357 -0.21508484 -0.93274915 0.26561898 0.24377353 0.01341973
-0.094854228 -0.086086661 -0.21593069 0.97111589 0.16806279 0.16937774 0.0065415432
0.095139205 -0.084894039 -0.21458866 -0.97380269 0.15214208 0.16900046 0.0061119706
-0.095927566 -0.073634662 -0.21467674 0.99016273 0.077913262 0.11622062 0.0020886529
0.095836125 -0.077655867 -0.21359779 -0.98694921 0.0986237 0.12729754 0.0030456602
-0.096127264 -0.06404046 -0.21653642 0.99590605 0.040503703 0.080812156 0.0011316562
0.096079253 -0.064660415 -0.21694605 -0.99573374 0.040953334 0.0826874 0.00085388683
-0.096387021 -0.054226249 -0.21577577 0.998631 -0.00054009689 0.052304566 0.00055324845
0.096394643 -0.055991609 -0.21593399 -0.99827272 0.013839177 0.057096433 0.00054955069
-0.096295685 -0.044685379 -0.21393014 0.99925172 -0.022709589 0.031308591 0.0004871969
0.096282445 -0.04460137 -0.21431516 -0.99916005 -0.023439405 0.033611886 0.00043762467
-0.095997512 -0.033909701 -0.21401517 0.99865913 -0.0501674 0.012776247 0.00043328421
0.096004337 -0.034811035 -0.21489368 -0.99891275 -0.043092053 0.017786324 0.00046948233
-0.095500164 -0.025915144 -0.21354176 0.9975425 -0.069778875 -0.0063155158 0.00063845218
0.095358416 -0.023898141 -0.21601406 -0.996777 -0.079798266 -0.0082408134 0.00050099677
-0.09464474 -0.016484849 -0.2155873 0.99380088 -0.10754751 -0.028164614 0.00066007423
0.0947036 -0.017606251 -0.21311931 -0.99405932 -0.10511553 -0.028226875 0.0007158157
-0.093540125 -0.0052216505 -0.21569234 0.99136704 -0.12480135 -0.040199384 0.00061217224
0.093787551 -0.0074781664 -0.21547325 -0.99125379 -0.12191878 -0.050513938 0.00078389316
-0.09175878 0.0060542766 -0.21486831 0.98037577 -0.17491522 -0.090928026 0.0014174499
0.092196412 0.0040576723 -0.21554592 -0.9852078 -0.15666763 -0.069432281 0.0011311742
-0.090792388 0.010495113 -0.21342927 0.97173232 -0.20484746 -0.11736178 0.002179713
-0.089491516 0.017970731 -0.2143108 0.95205992 -0.25594017 -0.1675605 0.0031905912
0.089453414 0.018030787 -0.21402873 -0.95277697 -0.25823584 -0.15978204 0.0031448656
0.090135761 0.014249761 -0.21384378 -0.96095228 -0.24035317 -0.13711737 0.003247828
-0.088025652 0.024129495 -0.2150055 0.94237912 -0.28310111 -0.17825639 0.0035224054
0.087700933 0.024806688 -0.21436262 -0.94161087 -0.28951406 -0.17190279 0.0033185729
-0.084327765 0.035269342 -0.21522625 0.90317065 -0.36040193 -0.23322317 0.0065229372
0.08461906 0.0353604 -0.21656622 -0.90631139 -0.35540724 -0.22865979 0.0053787869
-0.081237219 0.045146894 -0.21780533 0.85528034 -0.41626641 -0.30857402 0.009364781
-0.075894833 0.048865747 -0.2108701 -0.7409817 0.53102845 0.41104141 0.0077433991
0.078020521 0.047731917 -0.21385413 -0.80569869 -0.46139741 -0.37143251 0.0085366061
0.081995122 0.043030445 -0.2172152 -0.85827631 -0.41247231 -0.30533329 0.0095054666
-0.075744182 0.053191103 -0.2162593 -0.73481792 0.54566848 0.4028506 0.0071900627
-0.068272889 0.058213644 -0.21072078 -0.61153483 0.62441105 0.48593813 0.0094139902
0.068247072 0.059358902 -0.21209654 0.62062645 0.60684758 0.4965468 0.010350914
0.074964754 0.053915802 -0.21560939 0.72173953 0.5422287 0.43020943 0.0073964498
-0.064417787 0.065495402 -0.21544142 -0.58470923 0.62314445 0.51942867 0.0077319103
-0.057785239 0.067305915 -0.21105547 -0.442292 0.68975514 0.57325011 0.0066727549
0.056022294 0.068851441 -0.21193302 0.44061422 0.68979794 0.5744893 0.0053346003
0.064377435 0.064968735 -0.21472566 0.58231288 0.6374191 0.50458771 0.0084018223
0.071214296 0.060583152 -0.21696258 0.68962032 0.5574823 0.46220922 0.0083336541
-0.054031935 0.073010795 -0.21574692 -0.4206208 0.69906563 0.57826078 0.0061500659
-0.045245089 0.075824268 -0.21404052 -0.31856552 0.7343241 0.5994032 0.0035042299
-0.036676452 0.077329405 -0.21265702 -0.22946145 0.74790621 0.62288344 0.0026644489
-0.027555082 0.078977279 -0.21209013 -0.15996633 0.75474209 0.63621944 0.0013758094
-0.018001804 0.079324275 -0.21071665 -0.094802327 0.75880647 0.64437979 0.00087328884
-0.0074138232 0.079884782 -0.21049713 -0.050391328 0.75849062 0.64973271 0.00090952253
0.0075051659 0.079590932 -0.2101537 0.046015624 0.75773025 0.6509434 0.00080793287
0.015502729 0.07905253 -0.2101824 0.092273086 0.76069689 0.6425153 0.00079189305
0.026625719 0.078561872 -0.21133199 0.1377461 0.75618064 0.63970059 0.00064599497
0.035719704 0.076583698 -0.21149564 0.21842004 0.74749541 0.6273303 0.0021700636
0.044503242 0.076971218 -0.21507746 0.31266952 0.72665155 0.61173135 0.0034119007
0.056501389 0.072549276 -0.2166431 0.45821321 0.68442601 0.56709939 0.0059982678
-0.035353102 0.081171155 -0.2168659 -0.22358464 0.74559796 0.62776881 0.0025210532
-0.025340606 0.083761983 -0.2171983 -0.12224495 0.74960393 0.65049988 0.00067802425
-0.013969979 0.083557524 -0.21536472 -0.073399238 0.75369436 0.65311354 0.00076606654
-0.0042369268 0.083558522 -0.21457443 -0.021811264 0.76045275 0.64902687 0.0004640476
0.0033195058 0.084705591 -0.21582876 0.011742581 0.75186795 0.65920913 0.00082967809
0.014134238 0.082610443 -0.21428894 0.075109407 0.75861692 0.64719307 0.00084202009
0.025825897 0.083339781 -0.21679984 0.14958066 0.75314778 0.64062005 0.0010777642
0.036814321 0.081656478 -0.21784735 0.22726274 0.74397141 0.62837732 0.0019637942
0.041445758 0.081353866 -0.21876666 0.26690871 0.73794883 0.61983174 0.0033772984
-0.002406667 -0.18188462 -0.2020663 0.045892853 0.81647927 0.57554799 0.011868267
0.0052051945 -0.18067937 -0.20308952 -0.082617022 0.80679858 0.58502185 0.011615497
-0.031327274 -0.17008792 -0.20105125 0.43129697 0.72232991 0.54057598 0.00078713836
-0.023046752 -0.17340989 -0.20316121 0.35828707 0.75614268 0.54761171 0.0030404262
-0.014270451 -0.17572249 -0.20595488 0.25701147 0.77593303 0.57608432 0.0073981402
-0.0056439713 -0.1779228 -0.2068872 0.11552048 0.80608004 0.58042222 0.0092056328
0.0061147544 -0.17736062 -0.20756456 -0.089604899 0.80204105 0.59050912 0.0096939458
0.013521795 -0.17480256 -0.20770076 -0.23398702 0.7814002 0.57850134 0.0082134735
0.024580579 -0.17256805 -0.20308743 -0.39281434 0.73970062 0.54638809 0.0013949942
-0.040530685 -0.16340594 -0.20198619 0.46904099 0.70706642 0.52920473 0.00029343355
-0.033149764 -0.1656947 -0.20536901 0.43675461 0.71552932 0.54521841 0.0005988201
-0.024977947 -0.16925532 -0.20719992 0.40111136 0.73593223 0.54544795 0.00086741877
0.027904637 -0.1674393 -0.20725258 -0.41073075 0.72753131 0.54954392 0.00076565502
0.035577681 -0.16543338 -0.20364855 -0.44843808 0.71207064 0.54023945 0.00038101905
0.042765994 -0.1617814 -0.2020961 -0.48293799 0.69748259 0.52942324 0.00016489618
-0.053577453 -0.15328577 -0.20300691 0.50910008 0.68293178 0.52385247 0.00026058705
-0.047959756 -0.1544923 -0.20679304 0.49019614 0.68958586 0.53308439 0.0001863022
0.045627054 -0.15671787 -0.20601086 -0.48485777 0.69369113 0.53264028 0.00017753159
0.054528192 -0.15254572 -0.20301519 -0.51558703 0.67965382 0.52176678 0.00020413091
-0.064060614 -0.14261195 -0.20624347 0.54547811 0.65961266 0.51707321 0.00031846765
-0.057689123 -0.14703876 -0.20692258 0.52398193 0.67077118 0.52488941 0.0002455012
0.058374923 -0.14699382 -0.2063113 -0.52330977 0.67269093 0.52310014 0.00019762891
0.0654907 -0.14340542 -0.20369886 -0.55648804 0.65618294 0.50965178 0.00070119795
-0.081005543 -0.13214192 -0.20007318 0.67198777 0.58079183 0.4594706 0.005873465
-0.075529799 -0.13432732 -0.20414738 0.62071526 0.61649352 0.4844051 0.0031196654
-0.068160817 -0.13725618 -0.20862994 0.56967372 0.64433956 0.51019442 0.00075428403
0.066317953 -0.1388485 -0.20863104 -0.55371845 0.65501803 0.51414716 0.00066238944
0.074580863 -0.13449752 -0.20497583 -0.61062813 0.62447661 0.48699313 0.0024059482
-0.084033623 -0.12432824 -0.20539212 0.7157625 0.54610074 0.43526781 0.0078682192
-0.078818895 -0.12883112 -0.20712371 0.65717947 0.5852114 0.47501862 0.0036730666
0.078632787 -0.12676577 -0.20996021 -0.67025369 0.58300835 0.45919633 0.006136016
0.084594749 -0.12354605 -0.20564988 -0.73481512 0.53322089 0.41919222 0.011202595
-0.090739019 -0.11398502 -0.20586592 0.85223269 0.40746751 0.32813045 0.013676715
-0.088209242 -0.11694935 -0.2074465 0.79139948 0.47602797 0.38351566 0.013412849
0.087755591 -0.11787846 -0.20724061 -0.79510814 0.47254995 0.3801311 0.012079804
0.091431208 -0.11388364 -0.20352741 -0.85103381 0.4108187 0.32706192 0.01470737
-0.093637392 -0.10427613 -0.20592859 0.91940165 0.300208 0.25411767 0.012339274
0.09368185 -0.10471633 -0.20526399 -0.92535114 0.2736918 0.26233196 0.011982822
-0.095203497 -0.095486261 -0.20564866 0.96728623 0.18104294 0.1777097 0.0074276449
0.095286027 -0.094914488 -0.20552599 -0.96660912 0.18427885 0.17806767 0.007519159
-0.096102931 -0.086995058 -0.20522134 0.98457068 0.11363547 0.13306952 0.0025044146
0.096281581 -0.08563301 -0.20396048 -0.9881525 0.10272221 0.11402966 0.0022864179
-0.09668763 -0.074808791 -0.20378536 0.995915 0.044746555 0.078429177 0.00094197091
0.096602939 -0.076018594 -0.2044533 -0.99581623 0.048551191 0.077413142 0.0009213899
-0.096906066 -0.062820271 -0.20521764 0.99894381 0.0047379769 0.045703996 0.00038827164
0.096919276 -0.063090034 -0.20485298 -0.99883944 0.0032622956 0.048054446 0.00037480154
-0.096790195 -0.055060532 -0.2039206 0.99934256 -0.020411607 0.029964423 0.00047950982
0.09678451 -0.055187799 -0.20427267 -0.99927628 -0.016373944 0.034333695 0.00052139338
-0.096520782 -0.045390371 -0.20544168 0.99929428 -0.032993209 0.017953996 0.00046156891
0.096515208 -0.044098731 -0.20442902 -0.99897105 -0.043589681 0.012519182 0.00050506083
-0.095942654 -0.032810133 -0.2050626 0.99718744 -0.074624084 -0.0069696768 0.00066692597
0.095929407 -0.032943871 -0.20505214 -0.99716872 -0.074311368 -0.0115055 0.00039830772
-0.095108524 -0.024262289 -0.20211402 0.99259877 -0.1136737 -0.042731695 0.00057684083
-0.094273895 -0.015268127 -0.20437218 0.98929089 -0.13381797 -0.05827805 0.00085168181
0.094322592 -0.015445527 -0.20512892 -0.98995644 -0.12834755 -0.059272122 0.00085893908
-0.092533842 -0.0034941733 -0.20464453 0.98124808 -0.17145227 -0.088070542 0.0017503755
0.093047298 -0.0059046089 -0.20557798 -0.98541147 -0.15252069 -0.075509168 0.00099173165
-0.091182411 0.00352551 -0.20411201 0.96815264 -0.21785878 -0.12336138 0.0027777583
0.089987874 0.0081084045 -0.20046055 -0.95186675 -0.26471698 -0.15451398 0.0040902044
0.091038056 0.0054773656 -0.20636529 -0.96633852 -0.22850594 -0.11821582 0.0027223234
-0.090244509 0.010320276 -0.20743181 0.95997685 -0.23931296 -0.14551194 0.0028609987
-0.088525146 0.01645723 -0.20516026 0.93893266 -0.29299271 -0.18044624 0.0028844976
0.088945404 0.014717956 -0.20480478 -0.94464767 -0.28374317 -0.16471355 0.0040740427
0.090045303 0.011301913 -0.20724267 -0.95687544 -0.25503597 -0.13908975 0.0036374561
-0.085411228 0.024747191 -0.2041375 0.90991181 -0.33591011 -0.24336174 0.0036251764
0.085406028 0.025975591 -0.20591037 -0.91549402 -0.33382723 -0.22456656 0.0043991841
-0.08155819 0.035531532 -0.20535593 0.85853678 -0.42146614 -0.29202911 0.0095554609
-0.079185136 0.038519017 -0.20419975 0.80349529 -0.48504823 -0.34514278 0.0090868687
0.07883925 0.036737964 -0.20105514 -0.81399471 -0.4590601 -0.35591635 0.0092826504
0.081940435 0.033293743 -0.20420456 -0.84320438 -0.42737129 -0.32612914 0.007688697
-0.07504569 0.045296829 -0.20447704 -0.699637 0.56763095 0.43393904 0.0098718675
0.07636366 0.044720348 -0.20636828 -0.75820619 -0.52047127 -0.39272514 0.0066095977
-0.072112963 0.052217171 -0.20810446 -0.67945403 0.57118243 0.46053535 0.010930225
-0.06559255 0.054503649 -0.20308502 -0.58275115 0.63881278 0.50231397 0.0098697105
-0.058316588 0.058484957 -0.20069607 -0.46498999 0.68596888 0.55967045 0.0064217257
0.056851394 0.058799658 -0.20020799 0.42807218 0.70672697 0.56328619 0.0063410192
0.065578438 0.056392148 -0.20540421 0.59539127 0.61839968 0.51292402 0.0082063423
0.071176723 0.052588243 -0.20698175 0.62844014 0.60237622 0.49214405 0.0082344208
-0.062347986 0.062356587 -0.20920564 -0.52394152 0.66309243 0.53459668 0.0090490906
-0.055137906 0.064341135 -0.20590901 -0.444433 0.69534796 0.56477481 0.0060707172
-0.045707244 0.067560993 -0.20432368 -0.30439991 0.73674697 0.60377526 0.0024165132
-0.035190988 0.06795416 -0.20103002 -0.21722056 0.75035 0.62433165 0.0018837348
-0.029992441 0.06885837 -0.20066255 -0.17464979 0.75402319 0.63320333 0.0017548435
0.027977668 0.06939128 -0.20073357 0.14734991 0.7585693 0.63471299 0.0010709061
0.033594824 0.068830624 -0.20162776 0.19327432 0.7532472 0.62870014 0.0017472503
0.047132835 0.067138962 -0.20456326 0.33442739 0.72128338 0.60655475 0.0035572066
0.0536795 0.064495496 -0.20522593 0.36739966 0.71371496 0.5963459 0.0046160617
0.063132651 0.062129863 -0.20979114 0.57201797 0.63732278 0.51634783 0.0068720132
-0.042663742 0.07203614 -0.20819776 -0.28629506 0.7365489 0.61280566 0.0031148556
-0.03560055 0.0725547 -0.20664689 -0.21265461 0.75013745 0.62615633 0.0019008461
-0.024304096 0.073924117 -0.2052075 -0.13392515 0.75553977 0.64126724 0.0007413674
-0.013918668 0.075315759 -0.20559733 -0.075459883 0.76175106 0.64346027 0.00075243152
-0.0053686262 0.074398465 -0.20378667 -0.032301065 0.76489937 0.64333951 0.00045990699
0.0056827324 0.076840013 -0.20672196 0.040312435 0.76162314 0.64676511 0.00070372928
0.014301918 0.07477542 -0.20498388 0.074529134 0.7632181 0.64182824 0.00071154017
0.025390439 0.072559953 -0.20388892 0.14327653 0.75672615 0.63783801 0.0010373801
0.032538805 0.072936878 -0.20624626 0.18745171 0.75289166 0.63088512 0.001515876
0.042620603 0.072228558 -0.20847318 0.29385617 0.73388118 0.61242706 0.00358413
-0.023343161 -0.18114424 -0.1919166 0.38198006 0.75460821 0.53353316 0.0021333806
-0.015293037 -0.18291058 -0.19511366 0.2765229 0.78484249 0.55457854 0.0059938426
-0.0053928206 -0.18649763 -0.19476098 0.083445333 0.81736916 0.57003915 0.0098903058
0.0046437844 -0.18561839 -0.19619556 -0.12035087 0.81785178 0.56270254 0.012353078
0.013904747 -0.18375321 -0.19479124 -0.26722431 0.78383088 0.56053567 0.0059203533
0.020265711 -0.18251278 -0.19249463 -0.34489733 0.75943184 0.55164212 0.0033171747
-0.033870835 -0.17292881 -0.19481425 0.4557144 0.71993548 0.52346665 0.00033745746
-0.025254289 -0.17739552 -0.19567199 0.39377311 0.74718034 0.53541046 0.0010389279
0.026757982 -0.17689221 -0.19513716 -0.40838099 0.73810118 0.53705829 0.00089516502
0.035655063 -0.17360729 -0.19223912 -0.45222539 0.72543615 0.51887822 0.00031472687
0.042258799 -0.17051104 -0.19046076 -0.4788211 0.71271449 0.51260942 0.0002083211
-0.051885176 -0.16232093 -0.19279325 0.50393951 0.69508338 0.51274174 0.00018000652
-0.045269996 -0.16357566 -0.19746284 0.4854759 0.70222217 0.5207659 0.00022946394
-0.036064956 -0.16829824 -0.19946305 0.45499668 0.7161395 0.52926576 0.00031991611
0.037815727 -0.16787811 -0.19840065 -0.45622465 0.71634251 0.52793223 0.00031439701
0.044299118 -0.16665621 -0.19401954 -0.48351413 0.70844048 0.51412654 0.00022983908
0.052362479 -0.16198717 -0.19275808 -0.50545484 0.69469845 0.51177096 0.00023570332
-0.064431667 -0.15309286 -0.19250353 0.5514468 0.6692794 0.49796754 0.00042758236
-0.057310082 -0.15603611 -0.1958416 0.52131218 0.6827597 0.51193058 0.00029285517
0.055204961 -0.1571382 -0.1964993 -0.5143019 0.68666834 0.51379001 0.00014507113
0.06297233 -0.15418713 -0.19251561 -0.53547907 0.67861962 0.50273007 0.00025900014
-0.074577846 -0.14359368 -0.19349667 0.61843097 0.62513036 0.47618803 0.0029045921
-0.067215674 -0.14610752 -0.19849083 0.56059641 0.65589952 0.50549728 0.0005918598
0.065992147 -0.14833149 -0.19700602 -0.54707319 0.66554421 0.50770235 0.00041491271
0.074187428 -0.14357735 -0.19403093 -0.61725384 0.62434334 0.47874114 0.0020882324
-0.083251536 -0.13399309 -0.19472687 0.70083576 0.56407714 0.43663052 0.0063726115
-0.077868275 -0.13815677 -0.19661862 0.63740456 0.60766137 0.47377524 0.0030895304
0.078088313 -0.13670014 -0.19811453 -0.6400038 0.60594386 0.47246927 0.003398865
0.084819607 -0.13275348 -0.19388489 -0.74610293 0.51187515 0.42581013 0.0097310022
-0.09131103 -0.12247691 -0.19374922 0.87402618 0.37667215 0.3069143 0.012048298
-0.087940633 -0.12670632 -0.19602239 0.78431827 0.48156956 0.39106995 0.011789078
0.088283204 -0.12677942 -0.19522557 -0.78458166 0.48347962 0.38817394 0.010501768
0.091069408 -0.12242366 -0.19459637 -0.85573149 0.39307752 0.33647242 0.011465749
-0.092736766 -0.11662272 -0.19551927 0.89787817 0.33897331 0.28091255 0.013995143
0.094092138 -0.11471486 -0.19227667 -0.93519193 0.26592836 0.2338765 0.010432089
-0.095526487 -0.10256816 -0.19605403 0.9638744 0.19204645 0.18456531 0.0080021499
0.095031261 -0.10716791 -0.19535342 -0.94479811 0.24790549 0.21424134 0.010287629
-0.09641514 -0.094613858 -0.19527274 0.98488373 0.11478801 0.12972175 0.0030573201
0.096289866 -0.094977602 -0.1961482 -0.98189288 0.12724943 0.14033543 0.0044877506
-0.097061962 -0.084807813 -0.19328575 0.99598193 0.046058983 0.076801941 0.001127527
0.096977524 -0.084982768 -0.19457838 -0.99457687 0.059113331 0.085572012 0.0010736181
-0.097303309 -0.076157026 -0.1944124 0.99817765 0.021004461 0.056569446 0.00061609421
0.097464643 -0.075473361 -0.19230913 -0.99866855 0.014795776 0.049418941 0.00062811893
-0.097325757 -0.067107409 -0.19391063 0.99930346 -0.0049356148 0.036988921 0.00048790206
0.097223394 -0.065307662 -0.19632056 -0.99922657 -0.0045836722 0.039055496 0.00051231106
-0.097030669 -0.055095974 -0.19431329 0.99944192 -0.030567145 0.013468697 0.000403949
0.097016647 -0.055368766 -0.19512139 -0.99937731 -0.031611621 0.015674923 0.00045738285
-0.096662439 -0.045341238 -0.19471805 0.9981932 -0.06000416 -0.0031304387 0.00061604986
0.096634202 -0.044426259 -0.19397736 -0.99734157 -0.072050422 -0.01088554 0.00044435295
-0.095728539 -0.033333238 -0.19547269 0.99443334 -0.10073176 -0.030910438 0.0008075292
0.095793642 -0.034293476 -0.19475619 -0.99497914 -0.095619991 -0.029554389 0.00055978558
-0.09498921 -0.024321238 -0.19736926 0.9917841 -0.11977033 -0.044937644 0.00075411185
0.095041238 -0.025674475 -0.194884 -0.99013072 -0.12710364 -0.059041522 0.0009996742
-0.093695112 -0.014737666 -0.19577043 0.98559302 -0.15271005 -0.072704487 0.0012347067
0.093747072 -0.015605627 -0.19444734 -0.9843359 -0.15646061 -0.081258617 0.0012985893
-0.091919877 -0.0053227511 -0.1947192 0.9729287 -0.19636571 -0.12186155 0.0027657386
0.091843717 -0.0043475721 -0.19580609 -0.97114056 -0.20900637 -0.11490169 0.0024690311
-0.090614483 0.0033119041 -0.19774497 0.95651942 -0.24986044 -0.15046728 0.0033123288
0.088669263 0.0075064525 -0.19237031 -0.93242627 -0.30386484 -0.19556941 0.0045923144
0.090554893 0.0024350123 -0.19542401 -0.96026945 -0.23855637 -0.14482205 0.003241726
-0.086166903 0.01692782 -0.19571778 0.91047579 -0.34332043 -0.23057511 0.0034115086
0.086345978 0.015713418 -0.19460873 -0.90435499 -0.35824907 -0.2319475 0.0040827398
-0.083330803 0.02445979 -0.19547336 0.85903275 -0.42002505 -0.29264599 0.0094235577
-0.078845158 0.028584547 -0.19007677 0.79671156 -0.49204782 -0.35091263 0.010296581
0.08324834 0.023325993 -0.19332357 -0.84729099 -0.43072301 -0.31076628 0.0076995157
-0.0809744 0.030599058 -0.19738364 0.83563507 -0.43905526 -0.33006755 0.0091835903
-0.077259995 0.035750266 -0.19632737 -0.75016683 0.53080171 0.39433399 0.011438211
0.07703416 0.034532677 -0.19417487 -0.77027154 -0.51152742 -0.38081685 0.011405119
0.080424093 0.031264521 -0.19707391 -0.8362112 -0.43839675 -0.32948327 0.0079429895
-0.07209827 0.042847276 -0.19585736 -0.64330864 0.60356683 0.47102138 0.0088226367
-0.065922268 0.046971358 -0.19402346 -0.56248128 0.63941365 0.52418029 0.0068978169
0.066521659 0.045441605 -0.19276242 0.57580996 0.6348297 0.51520306 0.0065561575
0.071372174 0.041580405 -0.19336522 0.65342456 0.59160304 0.47227341 0.009041761
-0.062263928 0.053280398 -0.19780591 -0.53023726 0.66456056 0.52650529 0.0082052099
-0.054654822 0.054866474 -0.19415338 -0.40894565 0.71571988 0.56613469 0.0061627738
-0.047636006 0.057702642 -0.1934384 -0.33613533 0.73312533 0.59121931 0.003750561
-0.038838867 0.058589425 -0.19084263 -0.24876839 0.74709094 0.61641651 0.003024627
0.030575056 0.059824377 -0.19001171 0.17659603 0.75998795 0.62548554 0.0017084735
0.047242343 0.057629738 -0.19317377 0.32669035 0.73378885 0.5956738 0.003364926
0.055966537 0.053283554 -0.19300073 0.44221383 0.69864982 0.56243694 0.0064294832
0.062810712 0.051847156 -0.19663417 0.55161768 0.65057361 0.52198845 0.007910694
-0.050129831 0.060496837 -0.19829771 -0.35290518 0.72809142 0.58765697 0.0051527359
-0.042475935 0.063437335 -0.19769138 -0.28366834 0.73744464 0.61294997 0.0037181729
-0.035144337 0.063036516 -0.19513302 -0.22075734 0.75329053 0.61953175 0.0016630645
-0.025049584 0.064361207 -0.19399591 -0.12485215 0.76403975 0.63297325 0.0010661157
-0.014367897 0.06561324 -0.19407162 -0.073613606 0.76735801 0.63697934 0.00083133276
-0.0039058016 0.065818772 -0.19343719 -0.017508753 0.7691679 0.63880682 0.00063883088
0.0045362818 0.065300591 -0.19287157 0.020200353 0.76940936 0.6384365 0.00072902895
0.013958855 0.065812305 -0.19427301 0.068347178 0.76870483 0.63594139 0.00065725262
0.026040366 0.064184986 -0.19398758 0.14294273 0.76219916 0.63136345 0.001271668
0.035872705 0.062386278 -0.19455431 0.21611497 0.7505163 0.62451541 0.0018183383
0.044816058 0.062302973 -0.1975452 0.31352651 0.72941124 0.607997 0.0033930216
-0.021537859 -0.19045611 -0.18015519 0.36326215 0.76522619 0.53147864 0.0034205224
-0.013412097 -0.19352239 -0.18120335 0.2276354 0.79977977 0.55545872 0.010078672
-0.0042688842 -0.19230227 -0.1867477 0.067718089 0.81506592 0.57539719 0.011023252
0.0046252771 -0.19323505 -0.18535519 -0.10409723 0.81827682 0.56531996 0.013924376
0.014607057 -0.1914745 -0.18335107 -0.26731381 0.79146737 0.54965681 0.0056773033
-0.034637824 -0.18155314 -0.18190634 0.4536086 0.73046446 0.5105496 0.00023578026
-0.024393776 -0.18583795 -0.18436667 0.38229051 0.7579996 0.5284794 0.002248886
-0.01521106 -0.18833822 -0.18743773 0.29802471 0.78403699 0.54448795 0.0034654357
0.01636567 -0.18803917 -0.18712184 -0.29263279 0.78484625 0.54624385 0.0035389063
0.022712486 -0.18477722 -0.18726039 -0.36133614 0.75297689 0.54996544 0.0030470993
0.031144364 -0.18327335 -0.18242387 -0.42611933 0.74105078 0.51890856 0.00094109244
-0.044552539 -0.17257234 -0.18536749 0.48350906 0.71372056 0.50677592 0.00017557736
-0.035966534 -0.17815828 -0.18551937 0.45328802 0.72877252 0.51324505 0.00028203012
0.032082122 -0.17918704 -0.18746553 -0.43734726 0.73308641 0.52087581 0.00070218823
0.044822756 -0.17283942 -0.18472637 -0.48501197 0.71296877 0.50639796 0.00020774292
-0.063095778 -0.16204719 -0.18144912 0.5473659 0.6811592 0.48622286 0.00043215169
-0.054936264 -0.16586331 -0.18456261 0.51247299 0.69904649 0.49870384 0.00024207721
-0.047152098 -0.16884205 -0.18822624 0.48452345 0.71194082 0.50830841 0.00020547531
0.047637176 -0.16863407 -0.18804884 -0.49305463 0.70840394 0.50503558 0.00030216968
0.054332219 -0.16548945 -0.18571754 -0.51136458 0.69853979 0.50054806 0.00023308661
0.062503763 -0.16210958 -0.18194675 -0.53445274 0.68533826 0.49464309 0.00026271376
-0.073055938 -0.15289113 -0.18289042 0.6053195 0.64275539 0.46952504 0.0018848267
-0.066553727 -0.15655844 -0.18533936 0.5554871 0.67030948 0.49205622 0.00054162776
-0.059245571 -0.15923628 -0.18947329 0.52943254 0.68334949 0.50272727 0.00030293976
0.066517338 -0.15736854 -0.1841765 -0.5649606 0.66697568 0.48576018 0.00098772033
0.072179288 -0.15288639 -0.18393673 -0.59982723 0.6459533 0.47217751 0.0020353675
-0.081879571 -0.14420383 -0.18360059 0.67476821 0.59068698 0.44246671 0.0055786008
-0.078266919 -0.1468311 -0.18508612 0.65334433 0.61064482 0.44749752 0.0040060389
0.076767348 -0.14803137 -0.18516338 -0.6353904 0.60803062 0.47600186 0.0042147334
0.084522963 -0.14191496 -0.1829931 -0.72072899 0.55137306 0.42016372 0.0086552175
-0.090878502 -0.13393614 -0.18110389 0.85403609 0.40373155 0.32805991 0.011273523
-0.086961642 -0.13637756 -0.1859583 0.76366621 0.51158988 0.39381438 0.011244986
0.086657539 -0.13691925 -0.18577844 -0.75712198 0.51892751 0.39683819 0.0098221889
-0.093325727 -0.12509806 -0.18347907 0.89840049 0.32767752 0.29241073 0.0129159
0.092866987 -0.1248521 -0.18507469 -0.88911229 0.34648076 0.29904926 0.014163363
-0.095429659 -0.11468922 -0.18464901 0.95973396 0.20812978 0.18866017 0.0084462408
0.09522184 -0.11427438 -0.18536393 -0.96059823 0.21715915 0.17347316 0.006242061
-0.096495673 -0.10608564 -0.18383512 0.98478204 0.12261242 0.12316848 0.0031201513
0.096413419 -0.10515854 -0.18555489 -0.97998297 0.13724686 0.14421041 0.0052607274
-0.097082026 -0.096923709 -0.18454665 0.99225575 0.083090954 0.092327379 0.0018202903
0.097210698 -0.0950884 -0.18375354 -0.99460185 0.066985585 0.079247333 0.0011931127
-0.09767364 -0.081591621 -0.18460913 0.99902093 0.012962734 0.042298052 0.00042571596
0.09756735 -0.083914578 -0.18532737 -0.99809676 0.026218804 0.055816554 0.00067978853
-0.097711168 -0.075155221 -0.18397847 0.99942571 -0.0045670252 0.03357676 0.00056408433
0.09764497 -0.076307707 -0.1854507 -0.99938941 0.0058156908 0.034452673 0.00048969983
-0.097478397 -0.064154871 -0.18507285 0.99932766 -0.035583258 0.0088310353 0.00027659241
0.097445756 -0.064449698 -0.18664606 -0.99948925 -0.024983661 0.01992584 0.00039434413
-0.097208157 -0.055109076 -0.1845772 0.99858904 -0.053076848 -0.0016469911 0.0005495376
0.097185694 -0.054145064 -0.18577932 -0.99853367 -0.053936772 -0.0046309438 0.00056928635
-0.096384987 -0.043699145 -0.18609111 0.99667645 -0.078050286 -0.023329545 0.00059249718
0.096449047 -0.044991903 -0.18427418 -0.9964956 -0.081208274 -0.020045191 0.00066123804
-0.095552631 -0.034658514 -0.18442503 0.99293518 -0.11017597 -0.044057276 0.00070811249
0.095685326 -0.036046945 -0.18486692 -0.99361515 -0.10504244 -0.041170113 0.00073447463
-0.094490558 -0.023820188 -0.1870321 0.98552406 -0.15034629 -0.078347221 0.0016478716
0.094062664 -0.023139497 -0.18374997 -0.98212397 -0.16613081 -0.088505074 0.0014604956
-0.09261971 -0.013841877 -0.18604454 0.97219926 -0.20444855 -0.11414588 0.0026217753
0.092782848 -0.015186186 -0.18525773 -0.97813606 -0.17993002 -0.10428409 0.0011729364
-0.091409355 -0.0057673007 -0.18852814 0.96371716 -0.22286175 -0.14690782 0.0028485053
-0.089408532 -0.00092709286 -0.18298921 0.93176615 -0.30439192 -0.19788215 0.0043939166
0.089099519 -0.0015835937 -0.18065906 -0.93805104 -0.28583482 -0.19585404 0.0040815109
0.090822756 -0.0059882263 -0.18296508 -0.94379014 -0.27553576 -0.18259303 0.0034822032
-0.087748677 0.0056645405 -0.18569285 0.91848528 -0.32824028 -0.22055192 0.0044974266
0.087600701 0.0046741953 -0.18355185 -0.9100886 -0.34493595 -0.22969097 0.0047197789
0.090111956 0.00045792898 -0.18808353 -0.9477784 -0.26894423 -0.17142104 0.0036201885
-0.083726689 0.01523377 -0.18377517 0.86621159 -0.40616649 -0.29104337 0.0086105065
0.0839331 0.016804773 -0.18610923 -0.85029995 -0.42724508 -0.30732989 0.006546922
-0.080758661 0.023994699 -0.18800889 0.82567894 -0.46163994 -0.32425734 0.0083503593
-0.077995725 0.025941348 -0.18473651 0.7617721 -0.52163804 -0.38418368 0.010278471
0.076887488 0.02774247 -0.18467876 0.74079382 0.53982049 0.39977273 0.011990255
0.081144378 0.023809988 -0.18856886 -0.83824837 -0.44530827 -0.31470662 0.0074796993
-0.073583305 0.032624815 -0.18472233 -0.6499055 0.60435349 0.46084669 0.0068400311
0.067305379 0.036363356 -0.18193598 0.58279765 0.65570331 0.48000023 0.0066627753
0.073828794 0.033717569 -0.1867186 0.66460222 0.60249305 0.44193441 0.0071945842
-0.062892035 0.04261826 -0.18497261 -0.53896022 0.66703218 0.51438314 0.0072269402
-0.054590821 0.04896583 -0.1868089 -0.41072676 0.71440142 0.56651056 0.0052590813
-0.046241097 0.049157873 -0.18205638 -0.30460376 0.74635446 0.59175301 0.002974622
0.046775714 0.048141524 -0.18102667 0.31059787 0.74550325 0.5897066 0.0032825989
0.055229109 0.046001155 -0.18344438 0.40941486 0.71180654 0.57071078 0.0052011204
0.063723624 0.042910483 -0.1862663 0.56002104 0.65940517 0.50155884 0.0065828227
-0.051572658 0.051497459 -0.18817939 -0.35754564 0.73239601 0.57944566 0.0051875939
-0.044256419 0.05405556 -0.18727963 -0.27109224 0.75029093 0.60296971 0.0028121402
-0.034780346 0.053995319 -0.18407242 -0.18817139 0.76502049 0.61590189 0.0014099779
-0.02629938 0.057228565 -0.18568848 -0.15776199 0.76616359 0.62298042 0.0014161222
-0.014898345 0.057891015 -0.18487549 -0.081217706 0.77262098 0.62965107 0.00083990709
-0.0052804346 0.057808012 -0.18394895 -0.032383446 0.77481008 0.63136417 0.0007475508
0.0054938337 0.056951974 -0.18290392 0.036700167 0.77827197 0.626854 0.00069331744
0.011618191 0.057386905 -0.1839729 0.049590107 0.77860242 0.62555504 0.00075063546
0.02682405 0.057080146 -0.18564416 0.14025483 0.7679736 0.62493616 0.00098076765
0.034999877 0.05432285 -0.18455467 0.19549321 0.76076037 0.61889106 0.0013715307
0.043596294 0.053764779 -0.18647356 0.28922421 0.74214846 0.60461974 0.0025217666
0.050760992 0.052096695 -0.18844403 0.33977541 0.73017901 0.59278268 0.0039521344
-0.02382765 0.060607422 -0.18916096 -0.13051936 0.76670039 0.6285978 0.0011597493
-0.015093835 0.060787492 -0.18838078 -0.08775419 0.76843017 0.6338883 0.0009628273
-0.0047293375 0.061730418 -0.18863332 -0.027346134 0.77261066 0.63429093 0.00050140015
0.0036470275 0.062069584 -0.18894613 0.0185721 0.77368265 0.63330102 0.00073827297
0.01749789 0.060908329 -0.18872628 0.091669798 0.77087182 0.63035965 0.0008185046
0.025471358 0.060797229 -0.18975128 0.14287293 0.76357442 0.62971526 0.00088183064
-0.011973014 -0.20125914 -0.17110455 0.20452571 0.81504339 0.54210103 0.010996576
-0.0050294828 -0.20225452 -0.17241468 0.072987974 0.81943482 0.56850624 0.011232683
0.0051488788 -0.20266783 -0.17177859 -0.081991047 0.82124585 0.56465268 0.0119738
0.012686627 -0.20069794 -0.17144518 -0.21097012 0.81574994 0.53855705 0.0091744578
-0.023483725 -0.19409928 -0.17334637 0.3741698 0.76883751 0.51854205 0.0020984847
-0.015190085 -0.19746806 -0.17445235 0.27755684 0.7978844 0.53511 0.0063676485
-0.0060935463 -0.19791164 -0.17833522 0.097837351 0.81752509 0.56752145 0.0092645185
0.0069716931 -0.19852872 -0.17716499 -0.13681912 0.80378276 0.57897651 0.011654947
0.015308437 -0.19631112 -0.17601863 -0.24880457 0.80404752 0.54000354 0.0071172407
0.024373518 -0.19323602 -0.17384538 -0.40593961 0.7572667 0.51162505 0.00085520052
0.031323325 -0.19020322 -0.17241038 -0.42835146 0.74637365 0.50935394 0.00085031783
-0.043646708 -0.18180251 -0.17309324 0.48252717 0.71880066 0.50049293 0.00021635668
-0.035486415 -0.18578902 -0.17505351 0.45492128 0.73059845 0.50918812 0.00038296779
-0.028636156 -0.18771809 -0.17818041 0.41987839 0.74685371 0.51566631 0.00094984443
0.027803028 -0.18709087 -0.17975394 -0.41475049 0.74558526 0.52161753 0.00090968492
0.033816099 -0.18651043 -0.17549938 -0.44608596 0.73810142 0.5061754 0.00047268151
0.043315675 -0.18187791 -0.17328995 -0.48415351 0.71905541 0.49855271 0.00016632667
-0.061205659 -0.17113785 -0.17050573 0.53053623 0.69690442 0.48255119 0.00027099863
-0.054763909 -0.17371432 -0.17358126 0.51269799 0.70489961 0.4901605 0.00023983431
-0.047960054 -0.17686243 -0.17605282 0.4879187 0.71515828 0.50048375 0.00021508668
0.043847807 -0.17844397 -0.17767376 -0.47950438 0.71969157 0.50211495 0.00016298999
0.053294022 -0.17393522 -0.17479737 -0.50499213 0.70664811 0.4956122 0.00020008066
-0.065723926 -0.16369711 -0.17613012 0.55282593 0.68063301 0.48075169 0.00053779536
-0.057823118 -0.16783357 -0.1787395 0.52158624 0.69609416 0.49335662 0.00032037019
0.05860357 -0.16982913 -0.1750797 -0.52519262 0.6958425 0.48987353 0.0002790603
0.065612763 -0.16463608 -0.17496045 -0.55592364 0.67738837 0.48176125 0.00081668893
0.07194981 -0.16117734 -0.17244551 -0.59362733 0.65274227 0.47067416 0.0014575877
-0.081998497 -0.15162134 -0.17300394 0.67376882 0.60581601 0.42311051 0.005752997
-0.076247983 -0.1552075 -0.17573328 0.64131135 0.62473446 0.4454509 0.0042151213
0.068755105 -0.1594474 -0.17865819 -0.57605851 0.65891922 0.48371691 0.0011472442
0.075856388 -0.15666328 -0.17417292 -0.62952799 0.63171411 0.45236248 0.0030243646
0.080474623 -0.15195201 -0.1747039 -0.67169648 0.59861481 0.43644494 0.0052734893
-0.090393037 -0.14078686 -0.17286442 0.8512823 0.41599807 0.31978744 0.011362669
-0.084923692 -0.14629877 -0.17578164 0.72969133 0.5517891 0.40383083 0.0089670829
0.087653808 -0.14452559 -0.17339909 -0.7705698 0.52376986 0.3631629 0.01167525
0.090641245 -0.14051139 -0.17268065 -0.83274251 0.44703004 0.32665586 0.013585708
-0.0929607 -0.13380326 -0.17433889 0.88168156 0.35916528 0.30600303 0.014178338
0.088950366 -0.13910002 -0.1784365 -0.79586726 0.48487279 0.36262065 0.01197454
0.09284687 -0.13434614 -0.17376876 -0.86833799 0.3960076 0.29860875 0.014223855
-0.095712379 -0.12421162 -0.17272256 0.95595765 0.21927865 0.19509436 0.0077626924
0.094836801 -0.12635374 -0.17507178 -0.93177181 0.29230583 0.21531053 0.010622165
-0.096533954 -0.11509578 -0.17472218 0.97998905 0.14564966 0.13567454 0.0040261024
0.096517801 -0.11473117 -0.17509061 -0.97556931 0.16764948 0.1419795 0.0053288979
-0.097306632 -0.1053943 -0.17435789 0.99164146 0.086048305 0.096140087 0.001456472
0.09742216 -0.10420624 -0.17386633 -0.99401325 0.075871684 0.078619644 0.0013615658
-0.097615801 -0.095741764 -0.17638287 0.99703908 0.044940431 0.062396865 0.0009023142
0.097697891 -0.094163984 -0.17605552 -0.9976148 0.040426012 0.055951241 0.00058129715
-0.097985424 -0.086833037 -0.17508349 0.99909681 0.016798062 0.039032087 0.0005577784
0.097954363 -0.084248908 -0.17593274 -0.99953443 -0.0057566059 0.029962912 0.00034373789
-0.097928226 -0.078401096 -0.17360558 0.99965024 -0.0045630676 0.02605029 0.00040190434
0.097855568 -0.076202147 -0.17595394 -0.99966168 -0.013282012 0.022362472 0.00043244916
-0.097627319 -0.063378885 -0.17566958 0.99882561 -0.048406154 -0.0020555125 0.00040006236
0.097592734 -0.062567852 -0.17291227 -0.99832344 -0.05707217 -0.0096524227 0.00036217779
-0.097021438 -0.054521393 -0.17457174 0.99702102 -0.074212484 -0.021015383 0.00079985883
0.097065806 -0.055385817 -0.17356727 -0.99722594 -0.070952132 -0.022498319 0.00059694413
-0.096389331 -0.046662908 -0.17629236 0.99578053 -0.087434597 -0.027862424 0.00060315081
0.096131846 -0.043806884 -0.17593615 -0.99283552 -0.11193099 -0.041822594 0.0009305331
-0.09520413 -0.034877624 -0.17552331 0.98727411 -0.13813622 -0.078791663 0.001156183
0.095235065 -0.035065539 -0.17544867 -0.9867714 -0.14231949 -0.077635787 0.0012424098
-0.093356282 -0.024650373 -0.1739874 0.97644079 -0.18736559 -0.1070398 0.0018868841
0.093816102 -0.027415423 -0.17361462 -0.97975248 -0.17457689 -0.098020256 0.0019934704
-0.091519311 -0.014689428 -0.17452656 0.95554292 -0.26013786 -0.1388025 0.0035555621
0.091389179 -0.014806986 -0.17333999 -0.95735067 -0.24227785 -0.15742022 0.0038982981
-0.09106572 -0.0098140687 -0.17773858 0.95584637 -0.25429514 -0.14728105 0.0033537433
-0.08636415 -0.0004543066 -0.17053962 0.90261185 -0.36348268 -0.23059089 0.0049984981
0.088749371 -0.0037859054 -0.1758288 -0.92742175 -0.30721268 -0.21332921 0.0048433286
0.090254001 -0.0067902063 -0.17784326 -0.93593466 -0.29276767 -0.19573827 0.0049778079
-0.084071912 0.0064721294 -0.17300971 0.85871512 -0.41848764 -0.29576418 0.0068827244
0.085992314 0.0037886847 -0.1755325 -0.88916105 -0.37172109 -0.2668635 0.0067773382
-0.081636049 0.011694945 -0.17325763 0.83288848 -0.44904491 -0.32350513 0.0088217836
-0.077827916 0.016647374 -0.1717135 -0.70606315 0.57310992 0.41595647 0.0084507968
0.078539133 0.017723907 -0.17470913 -0.78626883 -0.49920636 -0.36410737 0.010790027
0.081909359 0.01273097 -0.17529449 -0.8263188 -0.4545843 -0.33249098 0.0073939604
-0.074991353 0.023876186 -0.17607215 -0.70124638 0.57104611 0.42680192 0.0089412648
-0.069109321 0.027533624 -0.17263216 -0.58271927 0.64442635 0.4951292 0.0066596172
0.068605185 0.029055053 -0.17400037 0.57615596 0.65502542 0.48886207 0.0067263711
0.07377483 0.024000991 -0.17428766 0.69797844 0.57135493 0.43171704 0.0093026757
-0.063846149 0.034969274 -0.17617679 -0.55750084 0.65933591 0.50444925 0.0065009608
-0.055994082 0.03599038 -0.1712625 -0.42684871 0.70121086 0.5710547 0.0054475316
-0.04956086 0.039879583 -0.17227399 -0.32402167 0.73741567 0.59264499 0.0037324321
0.055441525 0.037886094 -0.17331564 0.40554458 0.71589893 0.56835049 0.004202629
0.063394219 0.035384167 -0.17619352 0.55035716 0.66379386 0.50644314 0.0080598257
-0.061242096 0.040111102 -0.17978895 -0.50408715 0.675506 0.53813362 0.0064259274
-0.055113066 0.042225961 -0.17860867 -0.44818419 0.69951904 0.55660033 0.0055052415
-0.043568671 0.044281181 -0.17458317 -0.25342339 0.75888228 0.59989518 0.0020519614
-0.036403622 0.047308475 -0.17618228 -0.21555011 0.76090395 0.61201572 0.0016029879
-0.025965445 0.047499958 -0.17351337 -0.13927071 0.77474821 0.61674052 0.00082912872
-0.015699025 0.04785214 -0.17243677 -0.07782086 0.77490509 0.62726867 0.00060080038
-0.0047624796 0.048144121 -0.17185627 -0.022311097 0.77904165 0.62657517 0.00066011492
0.0053308206 0.04731933 -0.17087428 0.033602118 0.7790463 0.62606537 0.00067060132
0.016292129 0.047986548 -0.17265452 0.078973755 0.77631181 0.62538236 0.0006244274
0.023503844 0.047119521 -0.17236805 0.10606541 0.77603453 0.62170786 0.00082612847
