# .PCD v0.7 - Point Cloud Data file format
VERSION 0.7
FIELDS x y z normal_x normal_y normal_z curvature
SIZE 4 4 4 4 4 4 4
TYPE F F F F F F F
COUNT 1 1 1 1 1 1 1
WIDTH 567
HEIGHT 1
VIEWPOINT 0 0 0 1 0 0 0
POINTS 567
DATA ascii
0.13524058 -0.015226915 -0.089355081 0.026252503 -0.23810114 0.97088546 0.0021760149
0.14403434 -0.015801743 -0.089481197 0.029310305 -0.2111771 0.97700828 0.0020481176
0.15503086 -0.013685021 -0.089433998 0.044313297 -0.19083577 0.98062122 0.0028162657
0.16591108 -0.013322998 -0.089759819 0.052117646 -0.13948639 0.98885155 0.0047015757
0.17667794 -0.010658312 -0.089833885 0.041731641 -0.15321198 0.98731178 0.0033593839
0.22594249 -0.015869409 -0.089431204 -0.10470633 0.0097912839 0.99445498 0.0028638253
0.2362864 -0.016245261 -0.087896124 -0.14454554 0.065761708 0.98731047 0.0021767905
0.24678628 -0.012333213 -0.086073034 -0.14371221 0.031735763 0.98911053 0.0038281837
0.2562941 -0.014860674 -0.084240623 -0.17154637 0.11784118 0.97810292 0.0032894432
0.26490423 -0.01719212 -0.082657158 -0.16883115 0.18421881 0.9682765 0.0047827647
0.27610302 -0.01421272 -0.081798851 -0.13651028 0.21363559 0.96732873 0.0039985245
0.28684521 -0.013008839 -0.08075238 -0.12906943 0.23373251 0.96369606 0.0037636852
0.29267141 -0.010046635 -0.080869719 -0.1477818 0.24131897 0.95912749 0.0032402428
-0.22111954 -0.007533012 -0.08035852 0.055765349 -0.37402579 0.92574018 0.0032971334
-0.21755029 -0.0079113524 -0.080745459 0.041759357 -0.3812677 0.92352104 0.0038452579
-0.20603465 -0.0058119269 -0.080828547 0.013592056 -0.43594828 0.89986908 0.0026536821
-0.19522323 -0.0054749283 -0.080456786 -0.040961951 -0.46338701 0.88520879 0.0023154046
-0.18577567 -0.0091029434 -0.081773892 -0.038310073 -0.42549735 0.90414834 0.0023482102
-0.17580839 -0.0086656734 -0.080754422 -0.042580862 -0.45943421 0.88719058 0.0033321504
-0.16331273 -0.0093925279 -0.080514863 0.00016658942 -0.47121656 0.88201755 0.0036391714
-0.15264933 -0.0090472559 -0.080535263 0.013845339 -0.50309891 0.86411792 0.0032010733
-0.13048917 -0.0082129352 -0.080318093 -0.0035136589 -0.55214161 0.83374304 0.0026021553
-0.12543623 -0.008376278 -0.080500156 -0.017610889 -0.55050999 0.83464283 0.0021149162
-0.10123085 -0.0098840948 -0.080081791 -0.06226483 -0.5354073 0.84229571 0.0033279594
0.02317475 -0.0086503616 -0.080536433 0.060344711 -0.49387959 0.86743385 0.0024539852
0.033286486 -0.0090496652 -0.081435747 0.064274147 -0.48755881 0.8707211 0.0030641167
0.046898976 -0.0072668875 -0.081123576 0.043727029 -0.46434247 0.88457566 0.0028734943
0.054250415 -0.0062184678 -0.080899484 0.042800266 -0.467226 0.88310128 0.0030837192
0.062569357 -0.0045923023 -0.080417797 0.052254423 -0.46568143 0.88340831 0.0027244564
0.074648403 -0.0061277156 -0.082605965 0.074986942 -0.44471154 0.89252931 0.0025356649
0.087415285 -0.0057299798 -0.083512098 0.086274818 -0.41944975 0.90366948 0.0025562649
0.094687134 -0.0043052221 -0.083480999 0.08922673 -0.4237805 0.90135932 0.0020054656
0.1042299 -0.0052502528 -0.08444947 0.068535037 -0.37549928 0.92428523 0.0021565892
0.11449911 -0.0046123802 -0.0847449 0.045743372 -0.37631196 0.925363 0.0026415617
0.12304977 -0.0047759046 -0.085244186 0.060284287 -0.37141624 0.92650735 0.0026939048
0.13328236 -0.0037763172 -0.085411392 0.06105103 -0.34184653 0.93777061 0.0030667363
0.14464137 -0.0038963035 -0.086148322 0.066304281 -0.29385945 0.95354617 0.0019224813
0.15595016 -0.0043248688 -0.087422676 0.060473274 -0.26627466 0.96199834 0.0020993853
0.16702165 -0.0032444033 -0.088065647 0.071374021 -0.24796546 0.96613604 0.0020531756
0.17439973 -0.0061155693 -0.089227125 0.058691554 -0.22160801 0.97336787 0.0018672675
0.18573382 -0.0060150423 -0.08963079 0.034746271 -0.17919815 0.98319924 0.0030094876
0.19533561 -0.004679753 -0.089585103 0.0068814941 -0.14133911 0.98993737 0.003022708
0.20551914 -0.005009986 -0.089528561 -0.0080761854 -0.11611754 0.99320263 0.0026430383
0.21344459 -0.0053558876 -0.089493878 -0.033330876 -0.099403098 0.99448884 0.0024901575
0.22280097 -0.0049424954 -0.089310989 -0.066645518 -0.098627128 0.9928903 0.0017798692
0.23523059 -0.0044012456 -0.088114962 -0.11783393 -0.061766643 0.9911105 0.0024207758
0.2449964 -0.004408726 -0.08656545 -0.12307448 -0.055994414 0.99081647 0.0038316674
0.25401244 -0.0027973433 -0.085077249 -0.097581185 -0.025030773 0.9949128 0.0036260679
0.26345462 -0.0052156965 -0.083680645 -0.10083529 0.046755474 0.99380386 0.0044986834
0.27457041 -0.0046037128 -0.083212204 -0.0848158 0.099574029 0.99140871 0.0031489097
0.28515416 -0.0038476603 -0.082816303 -0.094036013 0.14052004 0.98560202 0.003115084
0.29335353 -0.0060303039 -0.081945337 -0.13008687 0.20275529 0.97055024 0.0031813714
0.30284756 -0.002666953 -0.081032991 -0.16251603 0.16945118 0.97204673 0.0025040626
0.097490288 0.0007509311 -0.081477597 0.081995495 -0.44949198 0.88951319 0.0030100537
0.11659892 0.0025843394 -0.08213982 0.083361499 -0.43383226 0.897129 0.0027562054
0.12720634 0.0057002222 -0.081560634 0.094937213 -0.44332132 0.89132094 0.0030641686
0.13474566 0.0044280961 -0.082494467 0.095693938 -0.42300367 0.90106076 0.0027250918
0.14742684 0.0049176393 -0.083389461 0.10265845 -0.36702207 0.92453009 0.0037414632
0.15591805 0.0045524579 -0.084386744 0.086439289 -0.32111743 0.94308633 0.0031491125
0.16362385 0.0048143081 -0.085093215 0.089317024 -0.29958403 0.94987994 0.0028699457
0.1754344 0.0051222034 -0.086225823 0.075585432 -0.27365512 0.95885336 0.0017779255
0.18666694 0.0035567575 -0.08790113 0.051226541 -0.24623904 0.96785444 0.0021527028
0.19484924 0.0058167065 -0.087689638 0.035775688 -0.25943407 0.96509796 0.0017216873
0.20569661 0.006081468 -0.087902717 0.0074318754 -0.22765628 0.97371322 0.0022839287
0.21509095 0.0060573216 -0.087947451 -0.014787265 -0.22455217 0.97434986 0.0018931503
0.22503626 0.0039690831 -0.087792911 -0.072396256 -0.17168941 0.98248744 0.0025268751
0.23372662 0.0049209101 -0.086696632 -0.064799279 -0.17056547 0.98321337 0.0026535559
0.24299642 0.0045865173 -0.085763946 -0.069961041 -0.13346364 0.9885813 0.0044267541
0.25592756 0.0078963712 -0.084228091 -0.041232228 -0.088638753 0.99521011 0.0045555718
0.26396504 0.0049285586 -0.084530234 -0.039209157 -0.021020178 0.99900991 0.0043845028
0.2741299 0.0040261438 -0.084109925 -0.047860112 0.04645307 0.99777329 0.0027542475
0.28808957 0.0039600292 -0.083480053 -0.08640229 0.076221541 0.99334025 0.0019342145
0.29396132 0.0045108837 -0.083058789 -0.10506693 0.069170773 0.99205661 0.0023836242
0.3052122 0.0049985405 -0.081451014 -0.14349847 0.11328421 0.98314542 0.0031830748
0.1451215 0.010607366 -0.081213303 0.10385127 -0.42295396 0.90018046 0.003299155
0.15506528 0.01260842 -0.081544489 0.11107801 -0.42248857 0.89953607 0.0041469368
0.16655754 0.015500435 -0.081676938 0.10998228 -0.39643028 0.91145319 0.0038814212
0.17488945 0.016842851 -0.082131423 0.10008741 -0.38798836 0.91621375 0.0032094433
0.18514439 0.015321868 -0.083582573 0.083305262 -0.35275608 0.93199974 0.0037295339
0.19474538 0.015180863 -0.084310859 0.06484209 -0.33794805 0.93892848 0.0038260787
0.20335589 0.014583297 -0.085124016 0.032090638 -0.28808805 0.957066 0.002176421
0.21639849 0.014698359 -0.085883267 -0.0085058259 -0.26773152 0.96345603 0.0017352474
0.22753783 0.013762462 -0.085793145 -0.032993514 -0.2474117 0.9683485 0.0018811446
0.23483239 0.014480795 -0.084885031 -0.040671196 -0.22706296 0.97303045 0.0037063335
0.24251746 0.013129555 -0.08429575 -0.046241693 -0.20581262 0.97749829 0.0045737377
0.25699577 0.016746094 -0.083308347 0.0041999212 -0.16256753 0.98668849 0.0044637546
0.26585263 0.015973141 -0.083773352 -0.0018112863 -0.11104879 0.99381334 0.0031219414
0.27447224 0.014357913 -0.084273115 -0.0083107157 -0.056314647 0.99837846 0.0028864625
0.28355518 0.015349632 -0.084399544 -0.043006647 -0.028115649 0.9986791 0.0021974384
0.29535788 0.014911317 -0.083446786 -0.086034849 0.01802437 0.99612904 0.0025990091
0.30707085 0.012470712 -0.081520975 -0.12197983 0.075913675 0.98962522 0.0026147515
0.3149938 0.019592235 -0.080610961 -0.084118783 0.043889437 0.99548864 0.0049514668
0.17885937 0.021418327 -0.080878861 0.11275654 -0.42613423 0.89760548 0.0032808096
0.18484338 0.022383139 -0.080943316 0.106181 -0.42397818 0.89942652 0.0027164149
0.19545934 0.024012299 -0.081165507 0.081938557 -0.41733488 0.90505123 0.0030229264
0.20367222 0.025849795 -0.081096888 0.06509582 -0.43034926 0.90031224 0.0019085101
0.21547185 0.025908509 -0.081499062 0.02583704 -0.39894813 0.91660941 0.0024435017
0.22563323 0.026041482 -0.081218608 0.017339541 -0.37521037 0.92677748 0.0038111433
0.23587047 0.023649827 -0.081902847 -0.0010260525 -0.286419 0.95810395 0.0039231428
0.24484736 0.024975767 -0.081365369 0.02394231 -0.26267913 0.96458614 0.0054142671
0.25606108 0.02367468 -0.082474984 0.035052232 -0.18191861 0.98268867 0.0038819702
0.26364481 0.024055488 -0.082794368 0.054847088 -0.16642943 0.98452681 0.0030144015
0.27625194 0.02572293 -0.083231494 0.019947421 -0.14222945 0.98963273 0.0021734599
0.28374752 0.024974603 -0.083531372 -0.014566436 -0.10501412 0.99436408 0.0024092058
0.29652247 0.025374513 -0.082720757 -0.059835743 -0.079773471 0.99501556 0.0030192621
0.30515492 0.02531152 -0.081900738 -0.054147594 -0.051742613 0.99719143 0.0023983142
0.31646684 0.024593646 -0.08083231 -0.055046171 0.013071158 0.99839824 0.003865255
0.32372215 0.023430919 -0.080289312 -0.079023391 0.070811704 0.99435455 0.00404754
0.33377707 0.027792241 -0.080218315 -0.075045094 0.054806449 0.99567282 0.0029573746
0.25635454 0.031779837 -0.080547951 0.074819349 -0.26090577 0.96246046 0.0034803241
0.265838 0.034142397 -0.081074879 0.087683126 -0.23770723 0.96737117 0.0024469474
0.27291119 0.037310615 -0.08102335 0.05884438 -0.25944969 0.96396226 0.0023657309
0.28562078 0.03483814 -0.081852868 0.022787165 -0.22507621 0.97407466 0.0023633577
0.29519019 0.034340773 -0.081395298 -0.026116436 -0.1578434 0.98711878 0.0035647014
0.3041802 0.034747351 -0.080788776 -0.032508451 -0.087768525 0.9956103 0.0033087169
0.31620231 0.033057149 -0.080996588 -0.019997664 -0.027098373 0.99943274 0.0028324698
0.32686901 0.03482135 -0.081043169 -0.030733969 0.00052993855 0.99952745 0.0029688571
0.33499244 0.034548774 -0.080793872 -0.05976649 0.017472694 0.99805951 0.0032180538
0.34288263 0.034850702 -0.080346279 -0.11684845 0.038868386 0.99238884 0.0033628449
0.27961493 0.040353503 -0.080564544 0.043965418 -0.25667575 0.96549708 0.0022740467
0.28517157 0.040704705 -0.080618635 0.029026665 -0.24276365 0.96965104 0.0029571471
0.29658666 0.041456852 -0.080176011 0.011486581 -0.22055809 0.97530621 0.0047229286
0.32634237 0.04463651 -0.080374189 -0.0088604474 -0.081956618 0.99659652 0.002704167
0.33592632 0.046156667 -0.080564626 -0.040063396 -0.084542736 0.99561411 0.0031421797
0.34374547 0.044029091 -0.0802726 -0.090542093 -0.038327228 0.99515486 0.002987443
0.33175543 0.050964687 -0.08001557 -0.015292911 -0.11842003 0.99284583 0.0036835892
-0.14351657 -0.13087206 -0.070238665 0.11810805 0.67887986 0.72468793 0.0025603392
-0.13673604 -0.1314351 -0.07120648 0.089231908 0.66529447 0.7412293 0.0020740221
-0.12310849 -0.13143547 -0.071417764 0.023893772 0.67529625 0.73715949 0.0021100566
-0.11347552 -0.13130981 -0.07154648 0.0085255308 0.66997766 0.74233228 0.0018435587
-0.10928053 -0.13018587 -0.072457746 -0.0014347578 0.64734149 0.76219875 0.0024368498
-0.0944639 -0.13197604 -0.070912294 -0.012095275 0.64509702 0.76400495 0.0022269986
-0.086139843 -0.13096547 -0.071485415 -0.014242732 0.62886089 0.77738732 0.0025229126
-0.075276211 -0.13138051 -0.070970617 -0.0086938441 0.65293366 0.75736529 0.0022859368
-0.060326509 -0.13078219 -0.071097694 -0.018535262 0.62876177 0.77737713 0.0026736108
-0.053076107 -0.1309647 -0.070825063 -0.010613949 0.62913883 0.77722043 0.002420648
-0.048895244 -0.13124132 -0.0705522 -0.019751465 0.63457346 0.77261007 0.0019177144
-0.035480801 -0.13114965 -0.070337459 -0.026225425 0.61356592 0.78920788 0.002703638
-0.029126914 -0.13016897 -0.070843577 -0.031193437 0.60846293 0.79296893 0.0026912799
-0.17508572 -0.12087995 -0.071148351 0.18300213 0.61553007 0.76657224 0.0023176263
-0.16517089 -0.12227327 -0.072303787 0.18815751 0.61804241 0.76329577 0.0020064374
-0.15519129 -0.12444004 -0.072862148 0.17079085 0.62098813 0.76498646 0.0028988512
-0.14758573 -0.12500151 -0.074023776 0.14136882 0.62470978 0.7679534 0.002604143
-0.13378613 -0.12440932 -0.076812051 0.063579507 0.6042189 0.79427779 0.0033072627
-0.1256351 -0.12557593 -0.075893961 0.029137531 0.6240983 0.78080231 0.0032231587
-0.11498145 -0.12490391 -0.076181866 -0.0024369585 0.61099315 0.79163218 0.0031007952
-0.10438427 -0.12277811 -0.077416033 -0.019850381 0.58754587 0.80894738 0.0032668116
-0.093858294 -0.12536667 -0.075442158 -0.0050358782 0.60874045 0.79335338 0.002672181
-0.084764756 -0.12617479 -0.074710064 -0.020350924 0.60272574 0.7976889 0.002562653
-0.075052135 -0.12413007 -0.075845897 -0.02987498 0.56859988 0.82207155 0.0027287253
-0.067191824 -0.12593468 -0.074484363 -0.016875898 0.57972389 0.81463826 0.0025392612
-0.055392504 -0.12497405 -0.074830554 -0.0097758844 0.56911367 0.82220066 0.0020780596
-0.044629905 -0.12551774 -0.074221306 -0.013710214 0.5798192 0.81462979 0.0030120639
-0.034258753 -0.12335193 -0.075370051 -0.019838262 0.54657102 0.83717775 0.0015582764
-0.025778625 -0.12369028 -0.074936368 -0.035125319 0.57477325 0.81755853 0.0022627264
-0.014511835 -0.12544826 -0.073412366 -0.037973985 0.59279573 0.80445701 0.0027022995
-0.0047899606 -0.12490936 -0.073394611 -0.037064977 0.60022748 0.79897022 0.0021259689
0.0057048029 -0.12469315 -0.073139884 -0.02698653 0.60988092 0.79203349 0.0024704316
0.015032666 -0.12443275 -0.072931722 -0.041583028 0.61520475 0.78726989 0.0025466159
0.024255823 -0.12504391 -0.072159365 -0.051154535 0.61429167 0.78741914 0.0025889222
0.033119302 -0.12422415 -0.072357357 -0.069610499 0.61887813 0.78239655 0.0027822473
0.04492702 -0.12294241 -0.071971454 -0.11017019 0.62832057 0.77011412 0.0020439418
0.052539781 -0.1220196 -0.071524836 -0.12417433 0.62364656 0.77178085 0.0020521902
-0.20307428 -0.11126082 -0.07143227 0.23681581 0.5690487 0.78746551 0.0022513638
-0.19342208 -0.11207127 -0.07298658 0.19825013 0.55310076 0.80918252 0.0026772269
-0.18497355 -0.1148949 -0.072941326 0.19057326 0.57912689 0.79264992 0.0025181477
-0.17405093 -0.11401159 -0.075807832 0.16771396 0.54062933 0.82437366 0.0018810777
-0.16475137 -0.11517169 -0.077002324 0.16588923 0.52668768 0.83371508 0.0027049738
-0.1557555 -0.11674695 -0.077864453 0.16278231 0.54066008 0.82534146 0.0028670991
-0.146667 -0.11876967 -0.078448124 0.133423 0.55029875 0.82423884 0.0035251114
-0.13724053 -0.11957215 -0.079893455 0.096138053 0.55852419 0.8238982 0.0032398163
-0.11647367 -0.1198274 -0.079678603 -6.0511073e-05 0.57304084 0.81952685 0.0033682585
-0.10393623 -0.11960241 -0.079593748 -0.017190635 0.53929883 0.84193903 0.0036811712
-0.098537996 -0.11903203 -0.07983771 -0.023270814 0.51663268 0.85589081 0.0028198743
-0.073756203 -0.11858077 -0.079516388 -0.016332537 0.51473123 0.85719603 0.0023795387
-0.05545409 -0.11839567 -0.079185516 -0.012700447 0.512936 0.85833287 0.0032086563
-0.044426329 -0.1174366 -0.079511389 -0.026670337 0.49505982 0.86844951 0.0034126244
-0.032194961 -0.1162352 -0.079923347 -0.022082061 0.49030989 0.87126845 0.0021839086
-0.027272016 -0.11805944 -0.078604892 -0.028613472 0.50113761 0.86489445 0.0020370963
-0.015361359 -0.11882842 -0.077716894 -0.029213749 0.50759959 0.86109763 0.0022580361
-0.0055952705 -0.11815526 -0.07779368 -0.026775569 0.50652891 0.86180711 0.0020249241
0.0046723909 -0.11637601 -0.078578524 -0.025532957 0.52941841 0.84797657 0.0031270622
0.014362606 -0.1176647 -0.077376634 -0.041089643 0.55364925 0.83173561 0.0032063751
0.022990348 -0.11629172 -0.077943161 -0.0536188 0.54878557 0.83424187 0.0025726981
0.03392287 -0.11668939 -0.077265315 -0.072399229 0.56074059 0.82482022 0.0024173874
0.04588246 -0.11740895 -0.075368561 -0.099795759 0.57339936 0.8131752 0.0025716871
0.055529952 -0.11607206 -0.074893817 -0.12504175 0.56998628 0.8120839 0.0023879814
0.064467818 -0.11364003 -0.075221896 -0.10995602 0.57327759 0.81194979 0.0026823892
0.074307516 -0.11414425 -0.073566869 -0.11051292 0.58711308 0.80192584 0.002359217
0.085716113 -0.1143497 -0.071903363 -0.1202639 0.60770327 0.78500533 0.0020187667
0.097715892 -0.11157595 -0.072006539 -0.12019788 0.59580445 0.79408413 0.0028243803
0.10075014 -0.11027999 -0.072399206 -0.12846699 0.58595693 0.80009419 0.0032495295
0.11201619 -0.1103361 -0.070786439 -0.1383629 0.60596347 0.7833671 0.0022268733
-0.22416762 -0.10273927 -0.070176363 0.26989293 0.51904011 0.81102109 0.0022650536
-0.21219514 -0.10408777 -0.073062643 0.24880655 0.52146405 0.81619275 0.0025432021
-0.2052307 -0.10493442 -0.074754864 0.21454513 0.52263999 0.82511687 0.0033785007
-0.19780007 -0.10455672 -0.076864675 0.20360613 0.49780574 0.84305036 0.0018447232
-0.18557143 -0.10677747 -0.078032665 0.18192518 0.49709791 0.8484084 0.0024936507
-0.17103663 -0.10914195 -0.079596244 0.16880043 0.47634804 0.86290151 0.0025292449
-0.16995274 -0.10955778 -0.079559535 0.16371159 0.49171039 0.85523057 0.0030863578
0.067286864 -0.10783494 -0.078510128 -0.095835418 0.49962404 0.86092472 0.0032603014
0.073471203 -0.10692938 -0.07823965 -0.10914891 0.48984936 0.86494744 0.0022820444
0.085186981 -0.10667962 -0.076802649 -0.11044155 0.51540345 0.84980112 0.0034110057
0.092709899 -0.10368925 -0.077654585 -0.10689873 0.50573629 0.8560394 0.0029620607
0.1051029 -0.10312168 -0.076294616 -0.1063118 0.52516937 0.84433109 0.0020117958
0.11649081 -0.105839 -0.072995931 -0.13336441 0.58080906 0.80304098 0.0026584354
0.12396406 -0.10538058 -0.072236165 -0.1513761 0.5915038 0.79196501 0.0026380292
0.13551223 -0.10226353 -0.072290234 -0.17795672 0.58618754 0.79038948 0.0020142929
-0.23503928 -0.09212482 -0.072632216 0.30669701 0.43987271 0.84406698 0.0019825161
-0.22526099 -0.096313722 -0.073544152 0.27189961 0.47597101 0.83637446 0.0021241782
-0.21626934 -0.093780242 -0.077598244 0.23959072 0.43112174 0.86990249 0.0020748226
-0.20888945 -0.097426035 -0.078333877 0.22655524 0.44225585 0.86780322 0.0017198107
0.10642287 -0.097850956 -0.079434894 -0.10205057 0.4683755 0.87761611 0.0025922281
0.11709718 -0.095511168 -0.079426199 -0.11858062 0.46708086 0.8762272 0.0027167867
0.12665105 -0.096665338 -0.077339195 -0.14067505 0.50348061 0.85247743 0.0026573979
0.13420752 -0.095364042 -0.076768205 -0.14976656 0.51661789 0.84301597 0.0025839906
0.14622939 -0.095451035 -0.074250422 -0.1719003 0.52868807 0.83122748 0.0023419526
0.15373179 -0.097234368 -0.071629092 -0.1889936 0.56334955 0.80431259 0.002600478
0.16536559 -0.093149655 -0.071743719 -0.18427718 0.56584746 0.8036533 0.0032509242
0.17540304 -0.090624183 -0.071240924 -0.1871984 0.56506151 0.80353111 0.0027883756
-0.25299513 -0.081690364 -0.070832789 0.38408053 0.37446073 0.84395576 0.0025504197
-0.24458064 -0.084168032 -0.07381545 0.33839867 0.39143214 0.85572618 0.0017025628
-0.23373605 -0.083694987 -0.077535354 0.2902832 0.3800647 0.87822914 0.0018901075
-0.22953445 -0.082271747 -0.079190053 0.27389956 0.35770521 0.89276314 0.0027019633
-0.21692871 -0.088818096 -0.079348333 0.233954 0.39530161 0.88825804 0.0027528959
0.14749435 -0.086977772 -0.079138547 -0.15384132 0.45079777 0.87926912 0.002682456
0.15363045 -0.086875319 -0.07794328 -0.15897578 0.46335956 0.87179387 0.002493669
0.16568874 -0.08448828 -0.076930054 -0.16172288 0.490302 0.85641676 0.0023894201
0.17491573 -0.085690238 -0.074327208 -0.18375981 0.53464442 0.82485622 0.002997749
0.18668918 -0.085033998 -0.072357491 -0.18074311 0.55368322 0.81287563 0.0025148042
0.1940629 -0.083430879 -0.071849905 -0.18867953 0.57130206 0.79875785 0.0022520067
0.2085789 -0.081580542 -0.070019692 -0.20027483 0.57373381 0.79417855 0.0020765178
-0.2603572 -0.073597476 -0.070158005 0.39813554 0.30890396 0.86375135 0.0021735334
-0.25411555 -0.076039188 -0.072201647 0.38475561 0.31767601 0.86662859 0.0021234145
-0.2455786 -0.073124506 -0.077368781 0.3471728 0.28397647 0.89377201 0.0027085859
-0.23371449 -0.078283504 -0.079439864 0.29546356 0.32931009 0.89680332 0.0027124658
0.17507927 -0.078316316 -0.078760423 -0.15610757 0.45661503 0.87586135 0.0028377068
0.18317012 -0.076847993 -0.078041233 -0.15829583 0.4641749 0.8714838 0.0018540457
0.19539562 -0.076831296 -0.07558997 -0.170084 0.51096654 0.84260595 0.0028627217
0.20430456 -0.075338744 -0.074710138 -0.18105964 0.52516776 0.83151448 0.0021905911
0.2152046 -0.076227441 -0.071945019 -0.20596856 0.55481374 0.80607611 0.0024435346
0.2246955 -0.073389038 -0.071529903 -0.22713357 0.56626874 0.79230678 0.0020387699
0.23149578 -0.072105482 -0.070429325 -0.23973745 0.55197978 0.79865158 0.0021266404
-0.26313686 -0.06519983 -0.071805529 0.39878935 0.25988123 0.87944794 0.0016843335
-0.25593975 -0.066278182 -0.074806802 0.38219014 0.24691013 0.89048642 0.002165606
-0.24763401 -0.06760747 -0.07826101 0.34533256 0.24610516 0.90563661 0.0020931545
0.20564699 -0.068048328 -0.078905374 -0.16689882 0.46689907 0.86841816 0.0034602992
0.21779349 -0.067236803 -0.076886497 -0.18799447 0.48116636 0.85623425 0.0028132217
0.22596133 -0.066720009 -0.075076856 -0.21380915 0.50143564 0.83836031 0.0027366509
0.23621011 -0.06396877 -0.073894054 -0.2525056 0.50011551 0.82832694 0.003081009
0.24594069 -0.063866854 -0.071317047 -0.2803725 0.51548141 0.80973464 0.0027780456
0.25470716 -0.060902301 -0.070190445 -0.30082181 0.49771369 0.81350309 0.0033793095
-0.2719509 -0.054879278 -0.070277795 0.3858625 0.19140062 0.90248317 0.0020496622
-0.26499578 -0.054352105 -0.073350661 0.38261458 0.17544416 0.90709728 0.0018955492
-0.25449836 -0.055250868 -0.077574067 0.35627434 0.16079643 0.92044175 0.0025357727
-0.24949557 -0.054441422 -0.079843931 0.34188661 0.16119382 0.9258132 0.0028234834
0.23529577 -0.058028147 -0.077598661 -0.22925313 0.43982911 0.86832792 0.0029662251
0.24497052 -0.054859836 -0.0767546 -0.25367352 0.43099764 0.86596233 0.0026338208
0.25493097 -0.054695904 -0.073375396 -0.28621912 0.4606097 0.84018886 0.0023451583
0.26421204 -0.052571926 -0.071025997 -0.30758488 0.4727729 0.82575858 0.003083844
-0.27408737 -0.042966977 -0.071320474 0.36910942 0.088655069 0.92514783 0.001809149
-0.26292193 -0.044249702 -0.075736955 0.36672154 0.099446155 0.92500037 0.0019937491
-0.25568053 -0.047153383 -0.078404307 0.35982198 0.10978757 0.92653912 0.0025104077
0.24838637 -0.04989263 -0.078424104 -0.25228357 0.38202956 0.8890481 0.002527996
0.25495392 -0.044546764 -0.078361146 -0.2610938 0.34746692 0.90060914 0.0019379954
0.26530972 -0.044928536 -0.074474126 -0.28253543 0.39484134 0.87422764 0.0034723564
0.27466315 -0.043068387 -0.07200481 -0.27090847 0.42623997 0.86309212 0.0049995068
0.28180945 -0.041053906 -0.070673324 -0.24815609 0.43617833 0.86496651 0.0040405015
-0.27596152 -0.034480676 -0.071349718 0.35797545 0.020633509 0.93350303 0.001814018
-0.26271278 -0.034133472 -0.07651896 0.34819883 -0.017317533 0.93726075 0.0022317832
-0.25722238 -0.033406563 -0.078435481 0.32154611 -0.037375078 0.94615597 0.002900887
0.25892875 -0.036769092 -0.079389296 -0.24921861 0.30858135 0.91796929 0.003281405
0.26593909 -0.035783201 -0.077806428 -0.24349762 0.33729163 0.90936428 0.0029809433
0.27549747 -0.034778822 -0.075435862 -0.2281661 0.37183934 0.89981979 0.0035576406
0.2857343 -0.034585044 -0.073228694 -0.22343467 0.40564838 0.88629925 0.0031019184
0.29593763 -0.033083413 -0.071558304 -0.22065744 0.42186838 0.87939596 0.0025350964
-0.27458492 -0.023892427 -0.071563393 0.32377312 -0.094854437 0.94136798 0.002598857
-0.26543254 -0.026361445 -0.074964918 0.33639759 -0.071165912 0.93902719 0.0034558463
-0.25617337 -0.023481239 -0.077876225 0.30360591 -0.12332755 0.94478244 0.0026686203
0.2758621 -0.026060704 -0.078235485 -0.20017849 0.31804341 0.9267022 0.0038821609
0.28410664 -0.025587693 -0.077178337 -0.17296363 0.32374403 0.93020076 0.0030906014
0.29426575 -0.026881645 -0.075260244 -0.21498539 0.38875592 0.8959074 0.0027141287
0.30547914 -0.023048367 -0.074511811 -0.22746694 0.3775861 0.89760095 0.0027763692
0.3131896 -0.022923913 -0.072070882 -0.24733229 0.40241078 0.88141495 0.0026383356
-0.27373558 -0.015820617 -0.071090117 0.30704498 -0.12929881 0.94287074 0.0024814839
-0.26447368 -0.013928621 -0.073926575 0.29456353 -0.1790587 0.9387067 0.0029629436
-0.25454485 -0.015123973 -0.077200517 0.25904247 -0.20847984 0.94309759 0.0025522269
-0.24434365 -0.01225756 -0.079579338 0.20158622 -0.24105659 0.94934434 0.0031079513
-0.09627375 -0.010040895 -0.079748273 -0.07077679 -0.53183097 0.84388769 0.0034148397
-0.084505327 -0.01085605 -0.079245083 -0.06217185 -0.50475699 0.86101985 0.0028635468
-0.075551257 -0.011438096 -0.078855686 -0.053738333 -0.50038207 0.86413544 0.0031428013
-0.063466206 -0.010126175 -0.077361196 -0.041333362 -0.52878952 0.84774601 0.0025677325
-0.056559216 -0.012255683 -0.078501299 -0.030809911 -0.5055536 0.86224496 0.0029016624
-0.043321539 -0.0130168 -0.078525424 -0.0051113106 -0.51224208 0.85882586 0.0033217929
-0.035737474 -0.013871537 -0.07889092 0.0019505739 -0.49638972 0.8680976 0.0032599545
-0.01441882 -0.011288901 -0.078805156 0.05279148 -0.506055 0.86088413 0.0030729403
0.28561783 -0.017963126 -0.07935825 -0.15271197 0.28572905 0.94606441 0.0027161664
0.29623479 -0.013507726 -0.079272509 -0.17204037 0.26790997 0.94795907 0.0032843538
0.30469969 -0.013383817 -0.077765413 -0.20620826 0.29783052 0.9320811 0.002106583
0.31596982 -0.01635951 -0.073975675 -0.24364471 0.35953501 0.90076178 0.0022895217
0.32682991 -0.013590544 -0.071562752 -0.2683239 0.37642264 0.88674033 0.0036800713
0.33042875 -0.011978501 -0.071002021 -0.2666682 0.38206834 0.88482302 0.0035977405
-0.2715739 -0.0080771409 -0.070486747 0.27766365 -0.22295234 0.93444914 0.0026601353
-0.26595423 -0.0054488219 -0.071298927 0.27214116 -0.2518664 0.92871016 0.003034085
-0.25219354 -0.0044609746 -0.074816771 0.20982553 -0.29819423 0.93115705 0.0045330464
-0.24578743 -0.0055346047 -0.076921754 0.18072405 -0.30957916 0.93354142 0.0034033705
-0.23591579 -0.0061525288 -0.07884533 0.12964778 -0.34192291 0.93074173 0.0031827136
-0.22793138 -0.0064740814 -0.079515666 0.074579976 -0.38814884 0.91857404 0.0030976087
-0.21550059 -0.0016421761 -0.078490905 0.021999756 -0.43124998 0.90196413 0.003664796
-0.20212935 -0.0012864829 -0.078322269 -0.019621274 -0.48236695 0.87574953 0.0026473484
-0.19637334 -0.0024195351 -0.078607067 -0.037408214 -0.47515044 0.87910897 0.0022301085
-0.18398623 -0.002391435 -0.077435903 -0.069511719 -0.51655269 0.85342926 0.0034133687
-0.17442857 -0.0017120237 -0.076109841 -0.058050189 -0.54165435 0.83859444 0.0041830065
-0.1661393 -0.0042356658 -0.077104494 -0.033764735 -0.53070921 0.84688115 0.0052880235
-0.15492414 -0.004121202 -0.077133559 -0.0083482806 -0.5538103 0.83260101 0.0034350692
-0.14241786 -0.0042263549 -0.07740856 0.008073288 -0.57095522 0.82094151 0.0036872344
-0.1360527 -0.0043548718 -0.077588357 0.0054438873 -0.55838531 0.8295638 0.0034870496
-0.12566063 -0.0022421016 -0.076237366 -0.021136574 -0.60208488 0.79815227 0.0026867378
-0.11196886 -0.0016615595 -0.07546328 -0.047582675 -0.63072866 0.77454323 0.0027668164
-0.10526929 -0.0050286888 -0.077162847 -0.045663837 -0.58431923 0.81023818 0.0027817329
-0.096141301 -0.0063962867 -0.077282563 -0.069493063 -0.55817968 0.82680476 0.0030956655
-0.086426988 -0.0031203774 -0.07426659 -0.074127033 -0.61287743 0.78669339 0.003002781
-0.075990357 -0.0058461139 -0.075203992 -0.064659812 -0.60798854 0.79130846 0.0030147696
-0.064177886 -0.005645277 -0.074416801 -0.043621961 -0.58148307 0.81238812 0.0021400691
-0.053149227 -0.0034432686 -0.072587036 -0.037336089 -0.61070603 0.7909767 0.0027219609
-0.044953004 -0.0043195067 -0.072903909 -0.010570094 -0.60622615 0.79522204 0.0034729484
-0.034893967 -0.0029113698 -0.071740575 0.017471962 -0.60356593 0.79712152 0.0032202264
-0.0249654 -0.0053916685 -0.074027203 0.059699789 -0.58629847 0.80789226 0.0034760206
-0.015787058 -0.0060300147 -0.075307474 0.063842691 -0.56644541 0.82162261 0.0028209463
-0.0029995646 -0.0050576366 -0.075902246 0.083419964 -0.57449985 0.81424266 0.0029180704
0.0051013897 -0.005138875 -0.076734744 0.083259307 -0.55116332 0.83023304 0.0032754436
0.014664913 -0.004016099 -0.076906003 0.078580789 -0.55208135 0.83007908 0.0038902578
0.023409149 -0.0035600003 -0.077234589 0.063715413 -0.55008548 0.83267426 0.0026786679
0.036301918 -0.0032766736 -0.077866025 0.063402928 -0.5411008 0.83856434 0.002773612
0.047437508 -0.0016344638 -0.077500343 0.059531875 -0.51537597 0.85489398 0.0030403801
0.055016696 -0.0031249253 -0.078941025 0.051764958 -0.48551661 0.87269354 0.0027790258
0.06494005 -0.0012524263 -0.078600027 0.070117258 -0.49973693 0.86333448 0.0036615594
0.075747095 -0.00051854271 -0.079493731 0.086674929 -0.50201213 0.86050647 0.0028812473
0.30643713 -0.0049194689 -0.079513229 -0.21287185 0.24091566 0.94691348 0.0025187845
0.31612462 -0.0053512976 -0.076959126 -0.22037074 0.25328073 0.94195837 0.0034282575
0.32567629 -0.0066976449 -0.074240863 -0.22899924 0.29499304 0.92765212 0.004013231
0.33471623 -0.0025727926 -0.073335655 -0.21752137 0.30118904 0.92842317 0.0039866325
0.34289688 -0.0033693402 -0.07162831 -0.23316866 0.35195634 0.90650928 0.0036121283
-0.26117015 0.0014306684 -0.070458785 0.2330775 -0.33047476 0.91458261 0.0038462868
-0.25340924 0.0050906092 -0.071252458 0.18365102 -0.39289853 0.90105659 0.0037123582
-0.2425362 0.0047640479 -0.074000679 0.12800026 -0.43245536 0.89252353 0.0033333565
-0.23421073 0.0041568195 -0.074851803 0.07301864 -0.4546507 0.88767165 0.0033769007
-0.22456788 0.0051058969 -0.07434202 0.037356161 -0.49144226 0.87010866 0.0027131848
-0.21527009 0.0042373203 -0.074861459 0.0016124707 -0.5181402 0.85529423 0.0036140594
-0.20443022 0.0052389065 -0.074152745 -0.033803031 -0.54018438 0.84086752 0.0032679874
-0.195619 0.0051725572 -0.073672682 -0.054182883 -0.5587616 0.82755643 0.0035093629
-0.18613273 0.0051994883 -0.072746068 -0.085151702 -0.58160824 0.80900007 0.0032329792
-0.17598814 0.0039981324 -0.072543465 -0.072063982 -0.60705215 0.79138774 0.0030934
-0.1654156 0.004311488 -0.071445093 -0.037786674 -0.62387955 0.78060645 0.0034009805
-0.15356424 0.0041195895 -0.071599633 -0.014433785 -0.64556432 0.76356947 0.0026772351
-0.14538385 0.0027843872 -0.072603524 -0.0077138967 -0.64634138 0.76300943 0.0026056617
-0.13615401 0.00093953416 -0.073956721 -0.011975036 -0.627644 0.77840835 0.0027549674
-0.1243792 0.0034881823 -0.071939185 -0.039258614 -0.68017387 0.73199874 0.0020831847
-0.11584139 0.0023218191 -0.07293909 -0.037751146 -0.66980577 0.74157614 0.0021528595
-0.10561664 0.0022353516 -0.072037816 -0.054948717 -0.66230249 0.74721885 0.0028121029
-0.09718433 0.0020590122 -0.071329132 -0.065328531 -0.66477054 0.74418569 0.0030793152
-0.089055344 0.001187549 -0.07146427 -0.069595754 -0.65148598 0.75546181 0.0041093649
-0.07933899 0.00044305474 -0.071220882 -0.064539872 -0.63666344 0.76843631 0.0038638515
-0.067307621 0.00056812901 -0.070009269 -0.059548642 -0.6492545 0.75823641 0.0037313618
-0.012623273 0.001091324 -0.071044371 0.091501951 -0.63103193 0.77034152 0.0017992907
-0.0013529055 0.0041076164 -0.070014238 0.084774166 -0.63431889 0.76840937 0.0021496876
0.0073085232 0.0024992849 -0.072019726 0.080871582 -0.61487871 0.78446412 0.0025059378
0.014553851 0.0046184193 -0.071248226 0.078071974 -0.63125634 0.77163476 0.0021299405
0.024990149 0.0055931099 -0.071375668 0.062835164 -0.62959111 0.77438146 0.0021324088
0.034314498 0.00082357053 -0.075077116 0.063576072 -0.56455016 0.82294673 0.0025969334
0.043587051 0.0055959481 -0.072564647 0.076703146 -0.59475946 0.80023617 0.0019354994
0.055803828 0.0054346225 -0.073447719 0.092787147 -0.58785093 0.80363047 0.0026780225
0.064894721 0.0075366371 -0.073031232 0.095831424 -0.57924843 0.80949837 0.0035818103
0.074832551 0.0041495292 -0.076427065 0.10040953 -0.54276621 0.83386016 0.0031263726
0.085381582 0.0063043553 -0.07640069 0.10228485 -0.53750426 0.83703464 0.0029111279
0.094606079 0.0080262935 -0.076470278 0.10023285 -0.53242773 0.84052008 0.0034758821
0.10436837 0.0068065859 -0.078421526 0.09426941 -0.48216587 0.87099332 0.0026393156
0.11437643 0.0088296579 -0.078313574 0.091110453 -0.49205899 0.86578107 0.0027112898
0.12863697 0.0094793011 -0.079589069 0.10714688 -0.45505145 0.88399535 0.0022320175
0.31758618 0.0045645023 -0.079041079 -0.16937114 0.17594546 0.96971983 0.0031694623
0.32720828 0.005361482 -0.077006608 -0.17730843 0.22062635 0.95910668 0.0033331004
0.33647394 0.0058676493 -0.075701468 -0.16740255 0.26289475 0.9501909 0.003642641
0.34489831 0.0059989719 -0.074429631 -0.20431513 0.28075337 0.93778086 0.0025301161
0.35368544 0.0053231888 -0.072640464 -0.24156833 0.31683135 0.91720366 0.0026219797
-0.24072719 0.010921382 -0.070848346 0.083724149 -0.48728704 0.86921901 0.0031794272
-0.22733948 0.011409112 -0.070545241 0.029294964 -0.53725874 0.84290862 0.0037470635
-0.21091539 0.010578092 -0.070856705 -0.031694811 -0.57065034 0.8205812 0.0036548038
-0.20699862 0.011428912 -0.070259362 -0.033917725 -0.57651156 0.81638467 0.0039302628
-0.19888231 0.011326445 -0.070054837 -0.058518846 -0.59422529 0.80216694 0.0027301414
0.067928515 0.012226925 -0.070447892 0.11522559 -0.62377077 0.7730673 0.0024792091
0.072398521 0.011409506 -0.071521543 0.10869823 -0.61735523 0.77913874 0.002367628
0.083528414 0.012995209 -0.071915656 0.1136455 -0.61185372 0.7827642 0.0022578728
0.095698588 0.015085663 -0.072101846 0.1169519 -0.60058689 0.79095995 0.0021516825
0.103805 0.01323524 -0.074245162 0.10875682 -0.56921822 0.81496179 0.0026900785
0.11663817 0.01509024 -0.074579097 0.10793867 -0.5492788 0.82863867 0.0026411519
0.12653035 0.017162355 -0.074426308 0.13152628 -0.55052477 0.82439268 0.0028921699
0.13479768 0.016023951 -0.07618656 0.13125458 -0.53252876 0.83617306 0.0036401516
0.1450035 0.017083261 -0.077308752 0.1271133 -0.49736944 0.85817587 0.0029880835
0.15545313 0.018111367 -0.07858225 0.13526145 -0.47066647 0.87188154 0.0028350388
0.16175702 0.017906932 -0.079886876 0.13396639 -0.43857396 0.88865399 0.0026891225
0.31875712 0.014626144 -0.079841428 -0.12320434 0.11772677 0.98537362 0.0032243899
0.3256067 0.014989536 -0.079318494 -0.11759413 0.15346646 0.98113185 0.0042159325
0.33385974 0.013390429 -0.078307778 -0.12886824 0.20249584 0.97076696 0.0025439227
0.34423086 0.013785825 -0.076893672 -0.1771614 0.22528884 0.95804948 0.0022472041
0.35422832 0.016505849 -0.075805649 -0.21461712 0.22491023 0.95044982 0.0026317155
0.36401892 0.016145224 -0.072679117 -0.27500513 0.26058534 0.92545533 0.0027062723
0.37209883 0.01791499 -0.0704915 -0.2966871 0.2663894 0.91706783 0.0026785377
0.11729734 0.020921227 -0.070928574 0.12750557 -0.59325713 0.79485106 0.0034108383
0.12145725 0.022228491 -0.070585132 0.12651865 -0.6098842 0.78232622 0.0023567735
0.13836004 0.02233565 -0.072867639 0.14538002 -0.56232113 0.81403905 0.0033741191
0.14531338 0.02402259 -0.073084339 0.14054999 -0.55913842 0.81707394 0.0030665067
0.1536416 0.023796791 -0.074745141 0.15556175 -0.54159158 0.82612288 0.0025552509
0.164453 0.024800656 -0.076107599 0.14974259 -0.51947242 0.84126425 0.0026359395
0.17422232 0.024100065 -0.07835003 0.13361923 -0.46788156 0.87363195 0.0029332931
0.18546031 0.026518203 -0.078711897 0.12180369 -0.47233209 0.87296408 0.0024966216
0.19548647 0.028909361 -0.078804232 0.095520116 -0.46539387 0.87993431 0.0032542478
0.20833437 0.029919097 -0.079960898 0.056384396 -0.44399783 0.89425206 0.002172716
0.22821137 0.02942697 -0.079794288 0.026874794 -0.37940291 0.92484117 0.0036655334
0.23502144 0.028985739 -0.079787977 0.041470673 -0.36014578 0.93197376 0.0041873157
0.32955658 0.021412833 -0.079803884 -0.096427679 0.10666223 0.98960853 0.0042803492
0.33633858 0.022536274 -0.079577193 -0.11228904 0.11958539 0.98645347 0.0038008953
0.34522173 0.025286702 -0.079313174 -0.14611171 0.11627152 0.9824115 0.0032628034
0.35256821 0.024852473 -0.07807149 -0.19217885 0.1365014 0.97182024 0.0028001654
0.36576176 0.024276769 -0.073890276 -0.2777136 0.1917025 0.94134229 0.0029909557
0.37558621 0.02775518 -0.071516573 -0.27080876 0.19315623 0.94305527 0.0028982731
0.16303037 0.032028954 -0.071352758 0.17016959 -0.59078127 0.7886824 0.001857133
0.17678611 0.03371546 -0.07274507 0.15174377 -0.56581265 0.81045043 0.0022910538
0.18476003 0.035506655 -0.072908141 0.15024623 -0.56392777 0.81204152 0.0023948089
0.193224 0.03679667 -0.073456965 0.12476514 -0.54562879 0.82868743 0.0028611899
0.20582864 0.034558851 -0.07687223 0.080238022 -0.4996601 0.86249733 0.0020298106
0.21455032 0.033378653 -0.078237109 0.045568723 -0.45997065 0.88676405 0.0025092885
0.22577333 0.036319923 -0.076788425 0.04480879 -0.44649038 0.89366573 0.0042473744
0.23623249 0.035460904 -0.077218957 0.064990707 -0.40254927 0.91308832 0.0038982967
0.24289459 0.034450743 -0.077917457 0.069921359 -0.37411401 0.92474306 0.0035664453
0.25242877 0.036921464 -0.07839714 0.094227917 -0.31709811 0.94370013 0.0041904543
0.26166636 0.039204549 -0.078908831 0.10242134 -0.30643737 0.94636464 0.0031180955
0.34778112 0.032274049 -0.079392865 -0.15932116 0.083396308 0.98369801 0.0030362881
0.35516229 0.033917591 -0.077908419 -0.18194412 0.083941489 0.9797194 0.0028773756
0.36527437 0.034639217 -0.075752571 -0.22738546 0.10917167 0.96766597 0.0028630693
0.37497681 0.035192437 -0.073327005 -0.2522572 0.14782907 0.95630169 0.0028976379
0.38396257 0.035968505 -0.070839286 -0.26717302 0.16864708 0.94877642 0.0025071069
0.18803889 0.040570326 -0.070241451 0.14545994 -0.58137286 0.80052918 0.0025277806
0.19655079 0.04097607 -0.071356207 0.134455 -0.57771045 0.80509156 0.0022674182
0.20743549 0.043366522 -0.071305752 0.10211919 -0.57811821 0.80953747 0.0027004823
0.21553878 0.043790128 -0.071591906 0.075020447 -0.56397063 0.82238007 0.0027392528
0.22423185 0.043792691 -0.072177663 0.077075712 -0.52553177 0.84727544 0.0044545806
0.23460239 0.046411723 -0.071564592 0.10729071 -0.48799825 0.86622542 0.0035694067
0.24440315 0.04453655 -0.074401766 0.10903418 -0.44261974 0.89005572 0.0037803284
0.25530428 0.044187095 -0.076469265 0.13092014 -0.36894298 0.92018533 0.0030094446
0.26586229 0.044002123 -0.077938691 0.11523032 -0.3347958 0.93521857 0.0030170141
0.27657846 0.04523069 -0.078641526 0.057641763 -0.32748249 0.94309735 0.0026164611
0.28387147 0.046962831 -0.078262284 0.059789795 -0.33694509 0.93962395 0.0031067817
0.2911278 0.045539353 -0.079028413 0.03634287 -0.3002485 0.95316839 0.0038953994
0.30461779 0.045675796 -0.079207718 0.029355133 -0.20317499 0.97870225 0.0054805838
0.3138265 0.046631988 -0.079567283 0.023511872 -0.15485728 0.98765701 0.0043229582
0.32251206 0.048700277 -0.079786286 0.022561634 -0.13228884 0.9909544 0.0035573083
0.34437734 0.044837177 -0.079776421 -0.087302499 -0.055752102 0.9946205 0.0023370055
0.35359898 0.04404638 -0.078434169 -0.14913341 -0.016930224 0.9886722 0.0027852298
0.36619803 0.045813072 -0.075906724 -0.20017138 0.032671541 0.97921604 0.0023785301
0.37632594 0.044047371 -0.073862411 -0.21662308 0.085692585 0.97248709 0.003322761
0.38616559 0.046545587 -0.072006062 -0.21989861 0.083874874 0.97191024 0.0047068712
0.39162299 0.046167485 -0.07077878 -0.24887931 0.11647958 0.96150482 0.0037991633
0.24481684 0.051969271 -0.070577838 0.15153407 -0.47966623 0.86426723 0.0035700435
0.25588107 0.053375062 -0.072382897 0.16349897 -0.4676663 0.86865205 0.0025780308
0.26580024 0.054861605 -0.073791996 0.1435518 -0.44704506 0.88291764 0.0026393102
0.27354833 0.054507166 -0.075005695 0.11764846 -0.42316717 0.89838099 0.0021113872
0.28300899 0.055680286 -0.074978456 0.10135533 -0.40428713 0.90899891 0.0032272253
0.29591852 0.054680966 -0.075837143 0.090403162 -0.34048072 0.93589538 0.0030401899
0.30423173 0.053314228 -0.077267773 0.070077598 -0.27532631 0.95879328 0.0039698062
0.31356984 0.053262703 -0.078602545 0.080859676 -0.22400044 0.97122884 0.0039654826
0.32652119 0.054298919 -0.079414167 0.023295645 -0.18843055 0.98181015 0.0031241281
0.33517614 0.055515081 -0.079227924 -0.027837569 -0.17666589 0.98387718 0.0033778267
0.34536645 0.054155573 -0.078510337 -0.086216472 -0.13831304 0.98662877 0.0033008079
0.35411915 0.054730557 -0.077559635 -0.11843579 -0.11729261 0.98600984 0.003127944
0.36398754 0.053628683 -0.076554872 -0.15853247 -0.052655462 0.98594868 0.0034626888
0.3751328 0.055731639 -0.074473925 -0.1699291 -0.01493618 0.98534316 0.0024166126
0.38548878 0.053255253 -0.072439082 -0.18833958 0.032892227 0.98155302 0.0031277447
0.39495286 0.051989682 -0.070590727 -0.22802247 0.089478292 0.96953565 0.0040623685
0.27419347 0.061865795 -0.071036905 0.14210638 -0.47822538 0.86666381 0.0031323137
0.2844969 0.062939227 -0.071819402 0.12756355 -0.43389991 0.89188474 0.0043652365
0.29363015 0.062456459 -0.072936848 0.12946413 -0.40753299 0.90396678 0.004173147
0.30554271 0.066814765 -0.073308624 0.14603733 -0.37622395 0.91494733 0.0029334149
0.31655085 0.06428574 -0.0757531 0.11178099 -0.30987695 0.94418287 0.002289034
0.32544732 0.065442763 -0.076619744 0.059882868 -0.2810156 0.95783311 0.002548913
0.33755893 0.06281884 -0.077704504 -0.014238086 -0.23447418 0.97201806 0.0026570996
0.34174645 0.065573469 -0.076755047 -0.012563685 -0.25158322 0.96775413 0.002097056
0.35583976 0.065922186 -0.075575665 -0.063030124 -0.21990445 0.97348309 0.0020868967
0.36514089 0.065020546 -0.074825503 -0.10486573 -0.16290309 0.98105335 0.0029767808
0.37543523 0.066030264 -0.073679246 -0.10954128 -0.1232121 0.98631614 0.0033917748
0.3838982 0.065231659 -0.072750814 -0.14616786 -0.055933807 0.98767722 0.0034210596
0.39630291 0.063065112 -0.070744261 -0.18428589 0.011525781 0.98280507 0.0034539446
0.30617127 0.072657838 -0.071189299 0.164584 -0.41742629 0.89368194 0.0038286548
0.31792599 0.073598064 -0.073009811 0.12181599 -0.36997372 0.92102134 0.0024976511
0.32545111 0.073565125 -0.073777318 0.094694294 -0.34214577 0.93486333 0.0027083566
0.33542129 0.074941054 -0.073534004 0.04510643 -0.33021253 0.94282824 0.0027306324
0.34545329 0.074879602 -0.073689967 -0.0025460727 -0.31152064 0.95023602 0.002738311
0.35326636 0.076495588 -0.073204733 -0.00041673682 -0.31225848 0.94999707 0.003091227
0.36638817 0.075959302 -0.072942086 -0.049623836 -0.22681423 0.97267294 0.003276054
0.37479272 0.073899716 -0.07253591 -0.081095032 -0.16142344 0.98354769 0.0035249491
0.38507763 0.075074531 -0.071372844 -0.11346693 -0.13890001 0.98378456 0.0040318873
0.39510393 0.074217714 -0.070447557 -0.14428355 -0.11835963 0.98243231 0.0026631588
0.32542595 0.081013538 -0.070802413 0.10461154 -0.42725831 0.89805722 0.0029160783
0.33486652 0.083529875 -0.070380203 0.081986643 -0.41928813 0.90414363 0.0027222179
0.34671876 0.080646425 -0.071673341 0.020154728 -0.34620148 0.93794376 0.0027603214
0.35365918 0.08149533 -0.071423151 0.0075422488 -0.3460426 0.93818849 0.0032202234
0.36260954 0.083413854 -0.070729539 -0.01420229 -0.34322613 0.93914545 0.0031304471
0.37461796 0.081518307 -0.071275882 -0.058203444 -0.27066013 0.9609139 0.0034025067
0.38380003 0.08339671 -0.070244089 -0.080792278 -0.24484041 0.96619141 0.0032721688
-0.13367242 -0.14124443 -0.060241684 0.071885176 0.76047516 0.64537603 0.0025018386
-0.12653914 -0.14061093 -0.061172888 0.051386043 0.75727922 0.6510666 0.0028300921
-0.1172041 -0.14055724 -0.061408684 0.020547517 0.75201571 0.65882486 0.002549604
-0.10971779 -0.14068267 -0.061411768 0.0056018387 0.73691916 0.67595762 0.0030700436
-0.098633848 -0.14189762 -0.060273133 -0.0037300363 0.74776286 0.66395533 0.0024082931
-0.065504938 -0.14115098 -0.060629234 -0.0079552922 0.73462355 0.67842835 0.0017606147
-0.05576824 -0.14101887 -0.060617261 -0.002881157 0.7239067 0.68989187 0.0024506222
-0.043137785 -0.14055933 -0.060899325 -0.018851949 0.72903544 0.68421632 0.0032406482
-0.16346169 -0.13312623 -0.062252969 0.18898703 0.71793896 0.6699608 0.0035111553
-0.15611547 -0.13425247 -0.06305933 0.17820019 0.71594399 0.6750325 0.0037991265
-0.14504692 -0.13404085 -0.066328935 0.13777217 0.70009607 0.70063138 0.0035347589
-0.1356885 -0.1362147 -0.065829434 0.079600081 0.71780133 0.69168282 0.0030315025
-0.12575249 -0.13479961 -0.067691185 0.03650729 0.68527061 0.72737283 0.0022349961
-0.11463368 -0.13696152 -0.065446563 0.0013786306 0.71643728 0.69765019 0.0038004518
-0.10638212 -0.1372444 -0.065244742 -0.0028805626 0.7098943 0.70430225 0.0034283132
-0.093934193 -0.13646886 -0.066072077 -0.0085327588 0.68860751 0.72508401 0.0027743052
-0.085589997 -0.13697058 -0.065402359 -0.014972224 0.70150071 0.71251142 0.0027321074
-0.076091953 -0.1363309 -0.065946192 -0.0022955185 0.70153064 0.71263564 0.003402909
-0.064452611 -0.13788453 -0.064092293 -0.014851693 0.71446019 0.69951838 0.0026047586
-0.05489096 -0.13679555 -0.065071195 0.00018821938 0.69262409 0.72129869 0.0032374538
-0.044997558 -0.13553508 -0.066225566 -0.015423464 0.67294556 0.73953116 0.0036948831
-0.033465415 -0.13460055 -0.066962913 -0.031281717 0.66162819 0.74917936 0.0030191841
-0.025022434 -0.13521358 -0.066121981 -0.039213937 0.66768849 0.74340725 0.0028673382
-0.015126298 -0.13483897 -0.065926805 -0.047710035 0.67075902 0.74013931 0.0028632628
-0.0054754606 -0.13512497 -0.064912252 -0.046738654 0.6847254 0.72730082 0.0034407356
0.0060835313 -0.1329322 -0.066317171 -0.029782638 0.68217576 0.73058146 0.0030174754
0.015272858 -0.1351279 -0.063310169 -0.040221523 0.70462447 0.70843959 0.0037123864
0.026054421 -0.13353309 -0.064130574 -0.058395293 0.7010591 0.71070814 0.0032489824
0.034691885 -0.13313 -0.063868843 -0.086274959 0.71060407 0.69828254 0.0028416957
0.044022996 -0.132177 -0.063475542 -0.11656887 0.71626908 0.68801916 0.0027723669
0.05503067 -0.13149497 -0.061937667 -0.13243613 0.72053188 0.68065739 0.002358319
0.06206993 -0.13088864 -0.061154079 -0.1471106 0.71385998 0.68466222 0.0025884388
-0.20243603 -0.12366333 -0.06086085 0.24418294 0.68146527 0.68991286 0.0027000888
-0.19359224 -0.12397402 -0.063208729 0.22280677 0.67375696 0.70456278 0.0021637485
-0.18723509 -0.12537785 -0.063682005 0.20305133 0.66455913 0.71911842 0.0024816617
-0.17501648 -0.12699455 -0.065599449 0.1914278 0.66987932 0.71736819 0.0033474476
-0.1652682 -0.12748224 -0.067797013 0.18475713 0.65009654 0.73704767 0.0027757597
-0.15814593 -0.12832738 -0.068888366 0.18281123 0.65653336 0.73180872 0.0026540314
0.015302787 -0.12928733 -0.069396317 -0.037406556 0.64705241 0.76152742 0.0026412846
0.025753681 -0.12955762 -0.068334348 -0.047779601 0.67174202 0.73924267 0.0023406271
0.033754021 -0.12827054 -0.069054909 -0.08039403 0.65277469 0.7532742 0.0025625508
0.045464605 -0.12777372 -0.067708969 -0.10645994 0.66793644 0.7365644 0.0024014025
0.053987343 -0.12749095 -0.066253148 -0.13028342 0.67219335 0.72882265 0.0031463781
0.064517334 -0.12555088 -0.066090852 -0.14353342 0.65987575 0.73753786 0.0031693897
0.0741487 -0.12491573 -0.064799078 -0.13402931 0.67920685 0.7216053 0.0026499298
0.081920445 -0.12279926 -0.065385267 -0.13487308 0.6803686 0.72035247 0.0027242331
0.097576343 -0.12187862 -0.063090652 -0.14351308 0.69589955 0.70365322 0.0023353749
0.10325742 -0.12292013 -0.060761575 -0.15357427 0.70808876 0.68922079 0.0026657556
-0.22423771 -0.11167534 -0.063275248 0.28158319 0.61506176 0.73648483 0.0027889875
-0.21536766 -0.11474688 -0.064324282 0.26496652 0.6292966 0.73060143 0.0026476455
-0.20560953 -0.11644901 -0.066915214 0.24842986 0.61572909 0.74777019 0.0026576607
-0.19960986 -0.11788958 -0.067447186 0.23353496 0.62278956 0.74672258 0.0021757588
0.085980676 -0.11854154 -0.068889588 -0.12000203 0.63044029 0.76690578 0.0025551762
0.095671795 -0.11802441 -0.067388274 -0.12687221 0.63793242 0.75956941 0.0028813463
0.10347695 -0.11730982 -0.066361435 -0.14606173 0.66221207 0.73494297 0.003254185
0.11521661 -0.11440563 -0.066650756 -0.15308189 0.64301491 0.75039834 0.0024679743
0.12451351 -0.1137464 -0.065219812 -0.16414934 0.6575222 0.73533636 0.0029970128
0.13487077 -0.11244293 -0.064080365 -0.16995247 0.66714978 0.7252773 0.0033595632
0.14231946 -0.11198784 -0.062264282 -0.18460596 0.68171626 0.70794326 0.0025197293
