# .PCD v0.7 - Point Cloud Data file format
VERSION 0.7
FIELDS x y z normal_x normal_y normal_z curvature
SIZE 4 4 4 4 4 4 4
TYPE F F F F F F F
COUNT 1 1 1 1 1 1 1
WIDTH 582
HEIGHT 1
VIEWPOINT 0 0 0 1 0 0 0
POINTS 582
DATA ascii
0.32636395 -0.35345778 -0.18625009 -0.49634376 -0.71447098 0.49312666 0.0016260452
0.33391443 -0.35750604 -0.18375038 -0.53213829 -0.68751544 0.49411684 0.0012755184
0.22795506 -0.3445569 -0.18219069 -0.55089855 0.09758658 -0.82884717 0.0023577611
0.23328535 -0.34470201 -0.18595365 -0.52080178 0.13893029 -0.84229678 0.0047029047
0.29772496 -0.34058177 -0.18964493 0.36952636 0.77392215 -0.51429051 0.0019500771
0.30537271 -0.34339705 -0.18820494 0.39057815 0.77696013 -0.49374256 0.00087455363
0.31540561 -0.34727728 -0.1864673 0.43557405 0.75863856 -0.48450255 0.00083172665
0.32126769 -0.3483406 -0.18273735 0.45341963 0.75276691 -0.47723445 0.00096760283
0.22849312 -0.33515641 -0.18204129 -0.49071908 0.18325886 -0.85182804 0.0061318334
0.23720472 -0.33450523 -0.18612967 -0.39610052 0.28369093 -0.87328333 0.014145397
0.24065506 -0.33101273 -0.18664995 -0.35288623 0.34063044 -0.87145978 0.012718632
0.27771899 -0.33192873 -0.18940383 0.23352858 0.71804041 -0.65565419 0.013564633
0.28512004 -0.33270112 -0.18671495 0.31468183 0.75181669 -0.57943672 0.0065449188
0.29299325 -0.33595997 -0.18587776 0.36469206 0.76705247 -0.5278545 0.0029943697
0.30286252 -0.33768648 -0.18093586 0.40380856 0.7773509 -0.48235276 0.0004329842
0.22896044 -0.32769713 -0.18032873 -0.42938951 0.24965647 -0.86792642 0.0095522916
0.23518334 -0.32513976 -0.18232378 -0.3299633 0.34236443 -0.87972206 0.011863637
0.24490348 -0.32517159 -0.1863558 -0.2219891 0.44600782 -0.86706281 0.02040877
0.25274721 -0.32270774 -0.18720043 -0.085453756 0.50999922 -0.8559196 0.022928255
0.26474938 -0.32338452 -0.18590549 0.13644946 0.64217246 -0.75431836 0.018878084
0.27408683 -0.32529441 -0.18405242 0.25900328 0.68726295 -0.67866552 0.013439778
0.28200257 -0.32614818 -0.18003005 0.35390484 0.72512609 -0.59071445 0.0054321401
0.23802993 -0.31624928 -0.18035138 -0.21326353 0.46006167 -0.86189443 0.016335266
0.24499564 -0.31452355 -0.18125059 -0.084130637 0.55307102 -0.82887536 0.020516187
0.25684699 -0.31739125 -0.18276104 0.078454077 0.62103641 -0.7798453 0.019772252
0.26220536 -0.31942368 -0.18296528 0.1368452 0.63165349 -0.76307744 0.019692738
0.30896327 -0.49226156 -0.17207333 0.17732634 0.96432388 0.19655721 0.011254139
0.3131226 -0.49247691 -0.17659485 0.13646577 0.97022384 0.20010726 0.013644811
0.3242107 -0.49493006 -0.17542873 -0.10704653 0.99119359 0.077950172 0.029246852
0.3335177 -0.49137732 -0.17647856 -0.26328191 0.96468353 -0.0082638748 0.023365406
0.26907152 -0.48023355 -0.17238641 0.29409277 0.90411937 0.30996391 0.0016184628
0.27503833 -0.48085424 -0.1752955 0.27073693 0.90709203 0.32231271 0.00053370319
0.28565097 -0.48443276 -0.17293535 0.27781624 0.9120636 0.30159262 0.00076854735
0.29536769 -0.48658493 -0.1750955 0.28408068 0.91611183 0.28290853 0.00049921934
0.30203468 -0.48766494 -0.17863481 0.28984088 0.91494381 0.28083804 0.0021594982
0.33990115 -0.48795795 -0.17728341 -0.37279978 0.92592275 -0.06072332 0.014754383
0.34567839 -0.48407388 -0.1729531 -0.5207625 0.84808528 -0.097764008 0.0032548218
0.24853188 -0.47053891 -0.1778014 0.48252225 0.78893673 0.3804619 0.0085861441
0.25387612 -0.47429484 -0.17601752 0.43223318 0.82594872 0.36191604 0.006031068
0.26316354 -0.47744957 -0.1752473 0.32373855 0.88600463 0.33194768 0.0025405025
0.27311704 -0.47944212 -0.17851631 0.27037928 0.90042239 0.34078535 0.00083053496
0.35515809 -0.47778219 -0.17197382 -0.65459919 0.75056088 -0.090323746 0.014664594
0.36128265 -0.47425362 -0.17537484 -0.72559315 0.68032742 -0.103292 0.016616166
0.23757736 -0.46253952 -0.17693987 0.57932878 0.70087689 0.41611263 0.0082772225
0.24336727 -0.46708664 -0.17676632 0.54643351 0.74192715 0.38852876 0.0085144062
0.36681661 -0.46664134 -0.17598169 -0.89192337 0.44605705 -0.074201666 0.029029939
0.21990488 -0.45150036 -0.17027174 0.68541914 0.55455649 0.47187674 0.011857091
0.22576457 -0.45404801 -0.17428713 0.64681602 0.56742322 0.50956845 0.011360955
0.231163 -0.45800728 -0.17549558 0.63305163 0.60275263 0.48573139 0.009571597
0.36813715 -0.45557299 -0.17249684 -0.97302848 0.22679307 -0.042196766 0.01283729
0.21711396 -0.44304013 -0.17391588 0.69060755 0.45755023 0.56009734 0.012695639
0.22399959 -0.4472025 -0.17852023 0.67467088 0.46428204 0.57381308 0.014206355
0.36905399 -0.44122964 -0.17446332 -0.99623936 0.086642593 -0.00042279135 0.00048837892
0.21666788 -0.43318439 -0.17686276 0.7084046 0.24708048 0.6611461 0.010106368
0.36953145 -0.43631732 -0.17586651 -0.99622625 0.082207568 0.027840672 0.00070112827
0.20935558 -0.42394719 -0.17106391 0.71289212 0.12695342 0.68968666 0.0076676277
0.21416423 -0.42578214 -0.176127 0.70828044 0.15053542 0.68969405 0.0071822093
0.37036231 -0.42629889 -0.17435737 -0.99658459 0.063974686 0.052216012 0.0021131095
0.21490872 -0.41212204 -0.17591469 -0.68104964 0.012164479 -0.73213607 0.0023378609
0.37166429 -0.41478616 -0.1762705 -0.99302924 0.032644514 0.11325744 0.0071991575
0.21471421 -0.40406409 -0.17504939 -0.65825629 0.039639328 -0.75174958 0.00049097132
0.37274945 -0.4051474 -0.17542733 -0.98032135 -0.070216715 0.18449847 0.016881034
0.21542646 -0.39573133 -0.17496127 -0.64828384 0.049523074 -0.75978655 0.00033956871
0.3695519 -0.39218843 -0.17846897 -0.89170921 -0.29469612 0.34352431 0.018471304
0.37224644 -0.39505929 -0.17413241 -0.92703259 -0.2352237 0.29202819 0.019519735
0.21676484 -0.38399592 -0.1748914 -0.62944645 0.038688835 -0.77608013 0.00045696599
0.22005309 -0.38550785 -0.17784947 -0.64052182 0.055386946 -0.76594001 0.00040944916
0.36806589 -0.38498735 -0.17460917 -0.80848467 -0.45620123 0.37179685 0.012819957
0.37082699 -0.38652772 -0.17100656 -0.86261457 -0.38904268 0.32332945 0.013199751
0.21402688 -0.37552148 -0.17268059 -0.6163553 0.023303863 -0.78712326 0.00034885417
0.22303958 -0.37086028 -0.17952259 -0.62133586 0.042019501 -0.78241688 0.00047994487
0.3620612 -0.37726882 -0.17438947 -0.74163789 -0.5136953 0.431382 0.0075676795
0.21630764 -0.36577046 -0.17439422 -0.60575038 0.024380613 -0.79528105 0.00019717521
0.222398 -0.36355162 -0.17901129 -0.60694277 0.032530144 -0.79407948 0.00033799835
0.34439158 -0.36319932 -0.17875321 -0.58363807 -0.64596051 0.49203834 0.00069457432
0.35190251 -0.36660543 -0.17425826 -0.63226789 -0.6168018 0.46882066 0.0012002058
0.21703215 -0.35276407 -0.17478001 -0.59390801 0.0515128 -0.80288208 0.00044766531
0.22285938 -0.35555714 -0.17910349 -0.59317535 0.049668126 -0.80353963 0.00068506098
0.33547211 -0.35407209 -0.17746234 -0.52263904 -0.70629758 0.47748518 0.0015208911
0.34047684 -0.35637587 -0.1748651 -0.5429343 -0.68638057 0.483843 0.0014726329
0.21493758 -0.34535912 -0.17294198 -0.59336829 0.0629237 -0.80246794 0.0004269669
0.22293296 -0.34602863 -0.17867324 -0.57319713 0.07527177 -0.81595302 0.0011553054
0.31714875 -0.34077483 -0.17342043 0.43737295 0.77352786 -0.45864961 0.00026728521
0.32746398 -0.34768599 -0.17551577 0.47470883 0.74316913 -0.47154126 0.0010906612
0.21692462 -0.33658677 -0.17379293 -0.56653863 0.1067929 -0.81708586 0.0017848399
0.22380203 -0.33645368 -0.1788075 -0.53612584 0.13112739 -0.83389127 0.002814258
0.28959507 -0.33011436 -0.17908612 0.39014071 0.7537002 -0.52889156 0.0019355131
0.29778716 -0.33206764 -0.17582537 0.41387552 0.76245183 -0.49736729 0.00077053037
0.30339831 -0.33453959 -0.1754121 0.41297463 0.7685324 -0.48868185 0.00066699623
0.31391382 -0.3395046 -0.17434753 0.42967817 0.77553505 -0.46251705 0.00029668037
0.21659072 -0.32569686 -0.17209861 -0.53332472 0.19291151 -0.82362002 0.0038129853
0.22217441 -0.32431319 -0.17549804 -0.48889911 0.240059 -0.83865929 0.006008869
0.27785817 -0.32230616 -0.17847152 0.34858102 0.71722019 -0.60339582 0.0050217486
0.28466707 -0.32285956 -0.1733263 0.40949008 0.72471154 -0.55417597 0.0021317145
0.29634798 -0.32836348 -0.17097071 0.42592743 0.7482959 -0.50856572 0.0008917753
0.22208019 -0.31560886 -0.17212367 -0.43318054 0.32483122 -0.84073734 0.0064086546
0.23394246 -0.31442642 -0.17751241 -0.28667021 0.42265186 -0.85975903 0.015066601
0.24586311 -0.31160015 -0.17967695 -0.079300046 0.55301368 -0.82938981 0.01844074
0.25444138 -0.31211144 -0.1787401 0.075790018 0.61184251 -0.78734016 0.021268969
0.26512468 -0.3138124 -0.17613856 0.28173473 0.70362991 -0.65232706 0.0068638874
0.27378881 -0.31686646 -0.17471036 0.34441668 0.71620893 -0.60697764 0.0034230729
0.22725451 -0.30472341 -0.1703185 -0.29326594 0.43624666 -0.85069609 0.0155587
0.23710576 -0.303958 -0.1726449 -0.10904471 0.56767142 -0.81600147 0.02237731
0.24405853 -0.30664176 -0.17543042 -0.048470493 0.59623569 -0.80134487 0.018127188
0.25348398 -0.30776882 -0.17444982 0.14413486 0.67672604 -0.72198826 0.014557147
0.26341048 -0.30889642 -0.17196703 0.2908214 0.70552009 -0.6462695 0.0076260096
0.29403472 -0.49042588 -0.16105428 0.26042289 0.93694997 0.23303367 0.0017968401
0.30632952 -0.49318814 -0.16579843 0.14746331 0.97203189 0.18277982 0.013484247
0.31527171 -0.49588832 -0.16434942 0.0073388754 0.99624765 0.086236581 0.015587941
0.32481927 -0.4945004 -0.16491555 -0.20039381 0.97948194 0.021389598 0.020568777
0.33104616 -0.49161616 -0.16574001 -0.33669904 0.94005644 -0.054106843 0.014826086
0.25725877 -0.48036724 -0.16193181 0.37220898 0.89015436 0.26284164 0.0039107366
0.26290223 -0.48134837 -0.1633255 0.32127985 0.90672731 0.27317566 0.0023577481
0.27501839 -0.48402944 -0.16479743 0.25543943 0.92658865 0.2760148 0.00034969187
0.28425449 -0.48629096 -0.16530305 0.26013669 0.92773205 0.26766071 0.00019379842
0.29484984 -0.48953512 -0.16561654 0.26589975 0.93233085 0.24506424 0.0016169529
0.3349098 -0.48923388 -0.16373333 -0.36524048 0.92700708 -0.08518973 0.011660818
0.34602928 -0.48295796 -0.16564389 -0.53029919 0.84095699 -0.10758371 0.0016975749
0.35030645 -0.4803735 -0.16551584 -0.56791312 0.81504989 -0.11475383 0.0031694807
0.24666817 -0.47383794 -0.16490726 0.49598309 0.81813693 0.29095143 0.0028181507
0.25479406 -0.47850528 -0.16454221 0.40357423 0.87158221 0.27833846 0.0034578757
0.35435778 -0.47762266 -0.16583705 -0.65386641 0.74486971 -0.13276979 0.01369198
0.3615852 -0.4726398 -0.16618581 -0.78202397 0.60863727 -0.13416132 0.023709536
0.23345873 -0.4644455 -0.16397935 0.58115655 0.74721766 0.32237083 0.0031803143
0.24339095 -0.46998149 -0.1689133 0.51948249 0.79256839 0.31933269 0.0046100994
0.36585346 -0.46660194 -0.16251516 -0.8577233 0.50494194 -0.096666597 0.024265917
0.21476768 -0.45143282 -0.1610705 0.69727039 0.58720583 0.41110012 0.013638262
0.22308853 -0.4565112 -0.16428392 0.63973671 0.65333378 0.40483579 0.0093421973
0.36786282 -0.45590743 -0.16478457 -0.96587944 0.25169119 -0.061060935 0.0129179
0.20787644 -0.44104362 -0.16331403 0.73976642 0.4282198 0.51901209 0.0094898371
0.21310826 -0.44620845 -0.1663104 0.69253451 0.54029751 0.47799015 0.013329068
0.36870733 -0.44608626 -0.16321427 -0.99044806 0.13545364 -0.025787385 0.0021613813
0.20648719 -0.43560824 -0.16398366 0.73159617 0.39904231 0.55274969 0.012336265
0.21030512 -0.43960142 -0.16739431 0.73845512 0.38644287 0.55258119 0.013904584
0.36973378 -0.43517444 -0.16709401 -0.99606872 0.088239022 0.0078117256 0.00036605628
0.37011153 -0.43099797 -0.16438979 -0.99478954 0.10194869 0.0002919414 0.00054699543
0.20445336 -0.42446345 -0.16528539 0.7422623 0.20709784 0.63730466 0.010132602
0.37060818 -0.42452997 -0.16625918 -0.9931336 0.11474803 0.022770097 0.00079502037
0.19903639 -0.41703027 -0.16127345 0.72376704 0.16321424 0.67046428 0.0066403579
0.20376916 -0.41578516 -0.16616403 0.71597493 0.10021763 0.69089526 0.0047573536
0.37101609 -0.41847306 -0.16577436 -0.99523348 0.083609991 0.05019667 0.0025269187
0.20819427 -0.40451065 -0.16925973 -0.66223216 0.0083865076 -0.74925172 0.0018712488
0.37378874 -0.40295479 -0.16531089 -0.99153835 -0.024215115 0.1275357 0.012716392
0.19988409 -0.39654839 -0.16170219 0.63726854 0.008466755 0.77059531 0.0011205277
0.20401993 -0.39554816 -0.16504475 -0.64130926 0.0069043348 -0.76725143 0.00069267571
0.37491757 -0.39635414 -0.16379292 -0.98335457 -0.10155208 0.15066858 0.015593403
0.19924445 -0.38666788 -0.16150202 0.6217078 0.0061187218 0.78322536 0.00057234889
0.20465346 -0.38433042 -0.16564472 -0.61929482 0.0089140795 -0.78510791 0.00031046954
0.21030495 -0.38515741 -0.16987109 -0.62660301 0.027513504 -0.77885282 0.00048017933
0.36952963 -0.38116783 -0.16582033 -0.85243201 -0.41406319 0.31923559 0.012859443
0.37239686 -0.38458332 -0.16444831 -0.87593549 -0.38787898 0.28685686 0.01713828
0.19846906 -0.37046415 -0.16102065 0.60713613 -0.0063763037 0.79457223 0.00013382232
0.20477995 -0.3751058 -0.16572286 0.60780251 -0.0079780426 0.79404807 0.00013286278
0.36367151 -0.37411976 -0.16674192 -0.75747204 -0.52948099 0.38195032 0.0073661166
0.19847317 -0.36484018 -0.16100787 -0.60942608 0.01986859 -0.79259396 0.00017808413
0.20521152 -0.36650711 -0.16601926 0.60426891 -0.012920183 0.79667568 9.9376128e-05
0.35537371 -0.36325738 -0.16530511 -0.66726613 -0.61329532 0.42264029 0.0028967713
0.36150691 -0.36688334 -0.16011494 -0.728311 -0.57854033 0.36722487 0.0059003667
0.19979119 -0.35636654 -0.16196305 -0.60940468 0.030502586 -0.79227245 0.00019584422
0.20577565 -0.35500544 -0.16641018 -0.60528058 0.034801539 -0.79525107 0.00019748615
0.21023044 -0.35603303 -0.16975395 -0.60386419 0.026718397 -0.79663932 0.00016453025
0.34665433 -0.35415673 -0.16490243 -0.5910539 -0.67263615 0.44521424 0.0024640304
0.35156435 -0.35586521 -0.16115534 -0.61592722 -0.65889126 0.4318518 0.0022715761
0.19916636 -0.34603274 -0.1608582 -0.61382401 0.057895768 -0.78731704 0.00018219717
0.20657177 -0.3467406 -0.16684635 -0.60681629 0.054483391 -0.79297262 0.00024527553
0.21028578 -0.34605739 -0.16959007 -0.60123277 0.052182075 -0.79736823 0.00032951977
0.32478848 -0.34154513 -0.16737978 0.44919938 0.77199537 -0.44971439 0.00022508999
0.33445713 -0.34533975 -0.16404672 0.5017817 0.73978829 -0.44825032 0.0010730663
0.3400642 -0.34758723 -0.16216511 0.52264357 0.72619301 -0.44664022 0.0015393695
0.19996083 -0.33406723 -0.16027293 -0.61189401 0.086321965 -0.78621507 0.000145124
0.20408419 -0.3334758 -0.16333701 -0.60224432 0.10241484 -0.79171526 0.00076726452
0.30932271 -0.33254626 -0.16660117 0.43685669 0.76955724 -0.46576595 0.00037204902
0.31541231 -0.3355701 -0.1660132 0.43643034 0.77301848 -0.46040308 0.00038916848
0.32167011 -0.33949977 -0.166839 0.44630685 0.77285975 -0.45110762 0.00023713819
0.20642924 -0.3244876 -0.16395412 -0.58152384 0.13969696 -0.80144542 0.0022921928
0.21208583 -0.32592341 -0.16859008 -0.55812913 0.15593016 -0.81497091 0.0028843991
0.28703359 -0.32135782 -0.16927119 0.43097731 0.72794217 -0.53325295 0.0013341061
0.29575002 -0.32266921 -0.16353779 0.4480052 0.73819482 -0.50434095 0.00084441592
0.30304426 -0.32800493 -0.16469052 0.44194037 0.75664771 -0.48184326 0.00060943078
0.20587061 -0.31633636 -0.16241993 -0.5318597 0.21062401 -0.82022119 0.003819976
0.21202068 -0.31510159 -0.16652313 -0.50745898 0.23463348 -0.82911545 0.003919621
0.27483508 -0.31219977 -0.16758899 0.40236828 0.71846259 -0.56737214 0.0011334327
0.28642362 -0.31793699 -0.16525757 0.45198724 0.72122961 -0.52491474 0.00056334172
0.21437161 -0.30732328 -0.16498241 -0.44214195 0.31255847 -0.84072453 0.007926235
0.2258309 -0.30161572 -0.16835949 -0.25838932 0.47664317 -0.84026557 0.016734622
0.24296498 -0.3001903 -0.16928077 0.048572335 0.6613183 -0.7485311 0.018427312
0.25576276 -0.30268025 -0.16809481 0.19675381 0.72858566 -0.65608758 0.009105376
0.26437324 -0.30421776 -0.16562383 0.3407011 0.72926933 -0.59337085 0.0028261251
0.27270046 -0.30679467 -0.16232596 0.40717781 0.72259021 -0.5586319 0.0013196765
0.21864831 -0.29533091 -0.16255032 -0.26484168 0.45338354 -0.8510595 0.017941058
0.22586794 -0.29664725 -0.16530001 -0.19214018 0.51037288 -0.83821338 0.018201618
0.2351407 -0.29550523 -0.16605908 0.0010400614 0.66030443 -0.7509973 0.013643983
0.24574903 -0.29632336 -0.16413541 0.19317165 0.71825641 -0.66842526 0.0092720818
0.25503033 -0.29678604 -0.16118193 0.28004357 0.74230254 -0.60873848 0.0038757438
0.22857651 -0.28796715 -0.16014805 0.0075132027 0.64768624 -0.76187015 0.019582123
0.2862007 -0.49047452 -0.15213829 0.23746416 0.94458783 0.22663775 0.0015780812
0.29346663 -0.49143457 -0.15629764 0.23001148 0.9504863 0.20897484 0.0051755589
0.30217001 -0.49462187 -0.15513785 0.14809281 0.98003125 0.13269283 0.010386696
0.31269854 -0.49679974 -0.15582165 -0.027691573 0.99675894 0.075529769 0.020444529
0.32367104 -0.49411672 -0.15475309 -0.31503499 0.94809902 -0.043141335 0.013308322
0.25703645 -0.48232189 -0.15440869 0.37460682 0.89749128 0.23276395 0.0034440728
0.26238352 -0.48366034 -0.15502128 0.33402538 0.91202688 0.23797897 0.0027215804
0.27534282 -0.48680851 -0.15427786 0.26590922 0.93304479 0.24232157 0.00057814433
0.28324312 -0.48756987 -0.15926927 0.25988334 0.92982703 0.26054248 0.0003062429
0.33631951 -0.48747295 -0.15525141 -0.46337357 0.87602633 -0.13365205 0.001604924
0.34210315 -0.48402509 -0.15522036 -0.49724498 0.85669512 -0.13718939 0.00072648568
0.23906823 -0.4709307 -0.15709226 0.53123039 0.81044513 0.24692696 0.0011527964
0.24604449 -0.47640437 -0.15357952 0.48234364 0.8440237 0.23445399 0.0019886196
0.25238681 -0.47924963 -0.15862517 0.41529423 0.87542772 0.24729939 0.0036089581
0.34895566 -0.47966796 -0.15353361 -0.56291831 0.81358248 -0.14562477 0.0024147464
0.3554278 -0.47548527 -0.15406442 -0.68704283 0.71392995 -0.13518912 0.012121893
0.3610864 -0.47174519 -0.15616955 -0.78311759 0.60475618 -0.14490306 0.020200131
0.22675051 -0.46312156 -0.15385187 0.57950139 0.76557279 0.27942133 0.0026769612
0.23348111 -0.4659366 -0.1598655 0.56327385 0.77679932 0.28161222 0.0017033955
0.36633196 -0.46302074 -0.15454444 -0.90928721 0.40761134 -0.083963156 0.019843649
0.21605963 -0.45471844 -0.15497808 0.64719337 0.69456387 0.31420004 0.0038837555
0.22167434 -0.45786265 -0.1581275 0.62703079 0.70560044 0.33009157 0.0041612377
0.36770079 -0.4532679 -0.155633 -0.96895772 0.24221234 -0.049539279 0.0094198622
0.204401 -0.44241759 -0.15629561 0.73348999 0.49807435 0.46250874 0.013838213
0.21090458 -0.4498935 -0.15566015 0.68617511 0.62695491 0.36890554 0.0084049627
0.36822805 -0.44647971 -0.1534301 -0.98737949 0.15293665 -0.041134842 0.0018801941
0.19673893 -0.43527544 -0.15136339 0.74421871 0.49577102 0.44760445 0.013784802
0.20143002 -0.43119442 -0.15965341 0.75461143 0.32804915 0.56828278 0.01212013
0.36958918 -0.43420878 -0.15456821 -0.99401414 0.10515814 -0.029626293 0.0004390447
0.37007803 -0.43206212 -0.15660949 -0.99416906 0.10581861 -0.020746369 0.00052112452
0.19622739 -0.4256312 -0.15531282 0.75538892 0.3162953 0.57388568 0.010492671
0.37057266 -0.426155 -0.15813749 -0.99219579 0.12460706 -0.0045360527 0.00068516022
0.18927529 -0.41138875 -0.15175724 0.70025641 0.16927311 0.69353253 0.0082228268
0.19447154 -0.41656762 -0.15608308 0.73017877 0.21520935 0.64847815 0.0095785456
0.3717562 -0.41447943 -0.15523875 -0.99053961 0.13705784 0.0068166642 0.0010161031
0.18854177 -0.40637183 -0.15270299 0.69459707 0.14267391 0.70510924 0.0061349687
0.19339788 -0.40558106 -0.15656082 0.66761059 0.060110793 0.74208003 0.0033580889
0.37430036 -0.40182361 -0.15611567 -0.99815327 0.005589982 0.060488142 0.0073373388
0.18809323 -0.39291453 -0.15273179 0.6233601 0.034908004 0.78115535 0.0007441694
0.19382013 -0.39567944 -0.15705357 0.63812715 0.024676014 0.76953548 0.0010927379
0.37546292 -0.39642066 -0.15453152 -0.99714488 -0.043884218 0.061451897 0.010973142
0.18657239 -0.38564634 -0.15176876 0.61693299 0.037537564 0.78612 0.00061787147
0.19347489 -0.38420397 -0.15712765 0.61148053 0.016126005 0.7910952 0.00033588632
0.37481022 -0.38368323 -0.155432 -0.95595586 -0.26763511 0.12049792 0.017744698
0.18732883 -0.3730191 -0.1526773 0.61423016 -0.010942845 0.78905112 0.00025698094
0.1939026 -0.37315392 -0.15763634 0.60771525 -0.0031222419 0.7941488 0.00011396515
0.3672874 -0.37281361 -0.15701061 -0.84165859 -0.46981183 0.26624727 0.012262803
0.37260759 -0.3788588 -0.15477227 -0.92224914 -0.35353082 0.1564372 0.014903451
0.18676496 -0.36645243 -0.15227549 -0.61606246 0.020546753 -0.78742927 0.00020622488
0.19532377 -0.36599305 -0.1586718 0.61175448 -0.013489376 0.7909326 0.00020296901
0.36315331 -0.36608905 -0.1552424 -0.80468923 -0.5375362 0.25205162 0.010779131
0.18646491 -0.3552264 -0.15127189 -0.62097257 0.05006633 -0.78223163 0.00010238716
0.19436505 -0.35485575 -0.15767556 -0.61604387 0.039028257 -0.78674442 0.000180131
0.35453412 -0.35539326 -0.15542471 -0.665084 -0.64153975 0.38221717 0.0045116912
0.18756217 -0.34370187 -0.15116793 -0.62222195 0.065633431 -0.78008473 8.3921739e-05
0.19198591 -0.34227502 -0.15466091 -0.61922932 0.063753121 -0.78261775 0.00012514977
0.33660814 -0.34215578 -0.15600717 0.49962303 0.75375253 -0.42688859 0.00095406326
0.34489763 -0.34638992 -0.15474531 -0.57223475 -0.7052564 0.41852209 0.0031164431
0.35157913 -0.34929508 -0.15101287 -0.64533061 -0.66860527 0.36947984 0.0034373514
0.19607741 -0.33537018 -0.15736628 -0.61628717 0.079864725 -0.78346139 0.00015557195
0.32343504 -0.33287728 -0.15318015 0.4648656 0.76505172 -0.44564083 0.0003928878
0.33168224 -0.33747682 -0.15276302 0.48879725 0.76277393 -0.42338291 0.00074249582
0.19346589 -0.32487258 -0.15403584 -0.60647684 0.10457643 -0.78819388 0.00048577556
0.20080853 -0.32300889 -0.15934819 -0.59493464 0.12430353 -0.7941041 0.00075795455
0.30547854 -0.32419631 -0.15617505 0.46412912 0.74412107 -0.48048717 0.00074152299
0.31119063 -0.32756844 -0.15615183 0.45871478 0.75579053 -0.46729147 0.00043286011
0.19737425 -0.31264392 -0.15526959 -0.57076067 0.17755274 -0.80169028 0.0024197279
0.20143688 -0.31323478 -0.15852033 -0.54606003 0.20849162 -0.81138748 0.0030414795
0.28694624 -0.31182751 -0.15683642 0.46451285 0.71767241 -0.51881999 0.00033572136
0.29707718 -0.31611723 -0.15304643 0.47723481 0.72585064 -0.49536633 0.00046732932
0.30357653 -0.31970087 -0.15145415 0.48006782 0.72901696 -0.48792329 0.00047214283
0.19744068 -0.30520937 -0.15430312 -0.53805429 0.20404901 -0.81783956 0.0036227037
0.2048295 -0.30303594 -0.15851729 -0.48804513 0.26940319 -0.83020109 0.0058222101
0.26879179 -0.30201781 -0.15903828 0.38556862 0.73704404 -0.55507016 0.0012804245
0.27384648 -0.30226228 -0.15533184 0.42542744 0.73151171 -0.53282475 0.00066798856
0.28320235 -0.30766514 -0.15457161 0.46191445 0.71762091 -0.52120554 0.00032800485
0.20364253 -0.29526567 -0.15487893 -0.40016028 0.3308261 -0.8546496 0.0075286645
0.21101147 -0.29202548 -0.15731689 -0.33644715 0.42358363 -0.84105903 0.012527122
0.24210498 -0.29138431 -0.15977661 0.18970834 0.7247377 -0.66239423 0.0076666134
0.25558564 -0.29276553 -0.15542994 0.32923004 0.7474941 -0.57694036 0.0024445315
0.26278666 -0.29571685 -0.15426587 0.37646186 0.74651355 -0.54862928 0.00099912297
0.27141923 -0.29800612 -0.1510026 0.41297886 0.74282175 -0.52693862 0.00076054793
0.20813966 -0.28635505 -0.15349826 -0.29784796 0.42116246 -0.8566848 0.015093709
0.21437307 -0.28635073 -0.15600991 -0.26282883 0.47491941 -0.83986461 0.01923481
0.22350061 -0.28556228 -0.15752321 -0.046748001 0.63410574 -0.77183199 0.018440317
0.23465991 -0.28513411 -0.15518843 0.11707314 0.69137067 -0.7129519 0.0092357034
0.24506569 -0.28649709 -0.15354005 0.24483204 0.73412269 -0.63334119 0.0071124956
0.20876357 -0.27991924 -0.15060803 -0.19363278 0.48906541 -0.850483 0.023252992
0.21753424 -0.27676186 -0.15067734 0.027285244 0.61686307 -0.78659737 0.01517073
0.22624195 -0.2786507 -0.15058491 0.091511615 0.6739592 -0.73307884 0.015742952
0.27722511 -0.49059159 -0.14163202 0.25109416 0.94493455 0.20988205 0.00071753201
0.28620788 -0.49284479 -0.14250253 0.19626509 0.96104312 0.194618 0.0035125837
0.29505166 -0.49543995 -0.14250298 0.10178139 0.98858279 0.11110675 0.012969648
0.30457744 -0.49685347 -0.14707258 0.059793506 0.99553227 0.073077045 0.01761606
0.31475788 -0.49599588 -0.14519013 -0.13490453 0.99085689 -0.0018165798 0.020657994
0.32243669 -0.49265426 -0.1443674 -0.34499648 0.93063998 -0.12201114 0.0097271884
0.24839459 -0.48026383 -0.14296538 0.44710967 0.87427688 0.18903123 0.0026890733
0.25645331 -0.48386717 -0.1475181 0.38382378 0.89805275 0.21489647 0.0033447482
0.26448429 -0.48690286 -0.14390743 0.32222369 0.92538184 0.19960043 0.0023283612
0.27407604 -0.489353 -0.1440151 0.27095681 0.93842107 0.21435563 0.00091514259
0.33635587 -0.48490351 -0.14265203 -0.46841535 0.86542398 -0.17784396 0.0007826527
0.34236157 -0.48152852 -0.14265382 -0.51973957 0.8353197 -0.17919734 0.0013300587
0.23657602 -0.47188872 -0.14723414 0.52882671 0.82170826 0.21245638 0.0007744605
0.24378191 -0.4769702 -0.14476691 0.49875617 0.84430128 0.19595298 0.00092886807
0.34768575 -0.47878492 -0.14433214 -0.58304095 0.79527628 -0.16612932 0.0050969031
0.35554376 -0.47418496 -0.1448705 -0.67467403 0.71900266 -0.16688384 0.01154191
0.21947037 -0.46115959 -0.14430463 0.5986464 0.76600385 0.23422325 0.0014453469
0.22303659 -0.46372753 -0.14425778 0.57616985 0.78474146 0.22849335 0.0012230799
0.23190032 -0.46893007 -0.14732984 0.55121166 0.80455345 0.22104155 0.00064763566
0.36494234 -0.46375453 -0.14544363 -0.8718999 0.47677535 -0.11169523 0.021867426
0.2090247 -0.4519679 -0.14431337 0.66527116 0.69233215 0.27944678 0.0036299124
0.21469933 -0.45669377 -0.14607491 0.6446777 0.71134377 0.27996564 0.0028559186
0.36633295 -0.45563245 -0.14128587 -0.94041908 0.32399178 -0.10315608 0.015280822
0.19903225 -0.44174513 -0.14497626 0.729698 0.57148719 0.375424 0.012545959
0.20418294 -0.44653335 -0.14603622 0.70410651 0.63236344 0.3230333 0.0072982395
0.36767587 -0.44538382 -0.14535919 -0.98755664 0.14479083 -0.061379652 0.0012353786
0.18882412 -0.43196058 -0.14234252 0.74335265 0.4869943 0.45854491 0.01316991
0.19403072 -0.43533152 -0.1463306 0.7441054 0.50380319 0.4387362 0.014855268
0.36893851 -0.43475294 -0.14554271 -0.99093032 0.12476459 -0.049908392 0.00043100087
0.18792421 -0.42304105 -0.14625014 0.74454629 0.35588518 0.56479782 0.0085364757
0.19009133 -0.42750436 -0.14733464 0.74256855 0.42048734 0.5213275 0.01296026
0.3707535 -0.42441982 -0.14594828 -0.98855489 0.14680886 -0.034732845 0.00055232551
0.18494026 -0.41326347 -0.14652768 0.72003978 0.24223933 0.65027916 0.0078114024
0.37202045 -0.41165364 -0.14530128 -0.99032724 0.13386786 -0.036487717 0.0010178945
0.17858092 -0.40618262 -0.14260386 0.7113353 0.25386304 0.65540493 0.0066288691
0.18334694 -0.40692034 -0.14731464 0.69578344 0.19835941 0.69031805 0.0089107025
0.37413582 -0.40353948 -0.14443466 -0.99727732 0.062387757 -0.039314922 0.0042119729
0.17691307 -0.39833915 -0.14388189 0.67183685 0.16923508 0.72110665 0.0051242323
0.18345612 -0.39600137 -0.14913043 0.6456213 0.081737943 0.75927079 0.0026620075
0.37595156 -0.39341658 -0.14533079 -0.9988032 -0.045622576 -0.017626973 0.0080802208
0.17538247 -0.3851411 -0.1433101 0.64024264 0.062607072 0.76561719 0.0017682727
0.37540543 -0.38529775 -0.14689897 -0.97618645 -0.21202719 0.045875367 0.013833536
0.17152055 -0.37701476 -0.14052352 0.64018703 0.017753083 0.76801383 0.001523696
0.18098143 -0.37325418 -0.1478619 0.62027365 -0.008447405 0.78433996 0.00029290098
0.37278545 -0.37560219 -0.14445426 -0.9369601 -0.33786732 0.089170679 0.016785512
0.17444079 -0.36390451 -0.14225546 -0.6255303 0.039966118 -0.77917558 0.00015624808
0.18252347 -0.36570048 -0.14890793 -0.61608756 0.024638193 -0.78729224 0.00019357912
0.36528915 -0.3640916 -0.1469938 -0.83088356 -0.51622999 0.20769936 0.015254926
0.1756455 -0.35660869 -0.1427003 -0.62489146 0.051009163 -0.77904344 9.9329794e-05
0.18105114 -0.35489678 -0.14681688 -0.62294269 0.052965328 -0.7804724 8.123205e-05
0.35652518 -0.35225925 -0.14714804 -0.68498856 -0.64609057 0.33668637 0.0066779633
0.36310023 -0.35924819 -0.14394721 -0.80988163 -0.54333955 0.22107433 0.012044924
0.17571823 -0.34756193 -0.14191718 -0.62477779 0.059115235 -0.77856153 5.5159453e-05
0.18351097 -0.34595203 -0.14805105 -0.62328219 0.062089089 -0.7795282 6.0178696e-05
0.34556621 -0.3420426 -0.14501762 -0.57795298 -0.73025328 0.36428085 0.0026325271
0.35513568 -0.3484858 -0.14277554 -0.67637497 -0.65890479 0.3291828 0.006333583
0.17821835 -0.33429375 -0.14271098 -0.62229693 0.071988419 -0.77946413 3.4110184e-05
0.18358614 -0.33492979 -0.14715506 -0.62155467 0.076939486 -0.77958328 4.9938426e-05
0.32658431 -0.33116588 -0.14681692 0.48350936 0.76162171 -0.43145216 0.00080137013
0.33536518 -0.33550724 -0.14542243 0.51090991 0.76610714 -0.38993722 0.0014082481
0.34241053 -0.3394748 -0.14466989 0.55598801 0.74157917 -0.3754167 0.0021766254
0.17924187 -0.32363027 -0.14262153 -0.61532879 0.084584221 -0.78371936 9.3857067e-05
0.18653858 -0.32344282 -0.14848082 -0.61355937 0.094677128 -0.7839523 0.00020072512
0.31613126 -0.32474309 -0.14638034 0.47968078 0.74848461 -0.45790511 0.00061268237
0.32390153 -0.32772303 -0.14347695 0.48428079 0.75910127 -0.43501416 0.00082781794
0.17950922 -0.31510389 -0.14209528 -0.60803783 0.087330088 -0.78909022 0.00019019403
0.18258399 -0.31719819 -0.14471591 -0.60735309 0.092152342 -0.78906929 0.00023197242
0.29732323 -0.31121048 -0.14579915 0.49044374 0.7155624 -0.49742872 0.00019213601
0.30585328 -0.31630808 -0.14428091 0.49167168 0.72586298 -0.48102167 0.00039062102
0.31142005 -0.31996948 -0.14367369 0.49088708 0.73356104 -0.47001928 0.00049600843
0.17826636 -0.30975178 -0.14038162 -0.60186869 0.081490085 -0.7944265 0.000277466
0.18376577 -0.30613646 -0.14400589 -0.58917272 0.10582529 -0.80104715 0.0010123629
0.19191681 -0.30210993 -0.14957081 -0.5346387 0.18776767 -0.82395679 0.0039474964
0.28616092 -0.30422404 -0.14720351 0.4713437 0.72170889 -0.50692356 0.0003084807
0.29291749 -0.3065134 -0.14365315 0.48875564 0.71587986 -0.49863213 0.00021101699
0.18838799 -0.29562628 -0.14596865 -0.50759506 0.17424476 -0.84379268 0.0046169795
0.19207844 -0.29491317 -0.14817353 -0.51234657 0.19779661 -0.83568978 0.0047104214
0.26498783 -0.2918644 -0.14679848 0.39293724 0.75566053 -0.52400142 0.0006413433
0.2756657 -0.29545969 -0.14396477 0.43560034 0.74346793 -0.50745225 0.00029310389
0.28152651 -0.29750028 -0.14220789 0.44868639 0.74001551 -0.50105637 0.00037882943
0.18539907 -0.28409773 -0.14210086 -0.46166709 0.19781312 -0.86471587 0.0061958754
0.19568817 -0.28550217 -0.14715801 -0.38998109 0.30214348 -0.86984146 0.0061211125
0.20176101 -0.28151837 -0.14855108 -0.28220761 0.39421311 -0.87461698 0.013242301
0.24671713 -0.28204393 -0.14626351 0.31501198 0.75202596 -0.57898575 0.0019538451
0.25450277 -0.28544527 -0.14531973 0.35537538 0.7599321 -0.54425311 0.0012299179
0.26345479 -0.2882466 -0.14258951 0.39309123 0.75643235 -0.52277082 0.00056425633
0.18720825 -0.27736956 -0.14102849 -0.39021307 0.25800782 -0.88383579 0.0079925572
0.19559759 -0.27379885 -0.14357075 -0.2687805 0.36661944 -0.8907004 0.01543482
0.20658909 -0.27286595 -0.146238 -0.17571032 0.46636748 -0.8669644 0.023759695
0.21347141 -0.27273786 -0.14682324 -0.016534444 0.58278567 -0.81245768 0.016677694
0.22424869 -0.27358174 -0.14567938 0.1547465 0.68188494 -0.71490312 0.014122135
0.2364572 -0.27575061 -0.14414887 0.27379531 0.74267262 -0.61112475 0.0063919174
0.24492608 -0.27948976 -0.14383069 0.32310784 0.75219703 -0.57428294 0.0023498747
0.19291572 -0.26827765 -0.14083946 -0.25471503 0.36544549 -0.89530432 0.011354769
0.20486104 -0.26609465 -0.14225432 -0.035383806 0.55291754 -0.8324843 0.020049891
0.21373795 -0.26913288 -0.14406453 0.04059203 0.63201785 -0.77389002 0.020271499
0.22221196 -0.26920331 -0.14153296 0.17395754 0.67111897 -0.72065115 0.013508248
0.27334142 -0.49132389 -0.13385302 0.28080359 0.93908089 0.19818281 0.00099015259
0.28316945 -0.49372426 -0.13517652 0.19288947 0.96803999 0.16028789 0.0049782428
0.29508731 -0.49709311 -0.13336845 -0.02097204 0.9986974 0.046515364 0.017155796
0.3056069 -0.49734804 -0.13526608 -0.06903705 0.9976002 0.0052635353 0.020385711
0.31405339 -0.49446103 -0.13470532 -0.28760368 0.95315194 -0.093730859 0.020028334
0.32120165 -0.49129355 -0.13586557 -0.37160715 0.91616517 -0.15016499 0.0075785862
0.24777465 -0.48102966 -0.13721484 0.44993898 0.87738425 0.16658856 0.0015310571
0.25458741 -0.48538327 -0.13310696 0.39522499 0.90383381 0.16395628 0.0023458407
0.3374556 -0.4823918 -0.13526322 -0.4766719 0.85628444 -0.19889903 0.00032441725
0.23696235 -0.47488993 -0.13477172 0.51147401 0.84122568 0.17531037 0.00040019222
0.24192147 -0.47804102 -0.13456048 0.49599847 0.85092318 0.17296013 0.00074028975
0.34590074 -0.47759581 -0.13539432 -0.5537464 0.80725074 -0.20423295 0.0044627101
0.35335958 -0.4727872 -0.13419469 -0.63493878 0.7461794 -0.20017268 0.0071323649
0.21829505 -0.46316782 -0.13492711 0.58558422 0.78508979 0.20180458 0.0012142606
0.22446904 -0.46712095 -0.13452077 0.55688459 0.80820566 0.19152832 0.0010471877
0.36332721 -0.46373385 -0.13456079 -0.8313157 0.53162742 -0.16213104 0.021364175
0.20642056 -0.45283422 -0.1343178 0.66082156 0.71819395 0.21797295 0.0010542779
0.21165404 -0.45673224 -0.13794327 0.64211231 0.73333567 0.22340658 0.0014506445
0.36543411 -0.45584482 -0.13349557 -0.90732276 0.38836473 -0.16105364 0.023852672
0.19752286 -0.44349524 -0.13609926 0.6959101 0.65429711 0.29598042 0.0043507619
0.20190519 -0.44847164 -0.13412939 0.67053109 0.7050122 0.23096694 0.0018311357
0.36694667 -0.44560179 -0.13676129 -0.972453 0.20629343 -0.10852689 0.0065411497
0.18687545 -0.43325379 -0.13453265 0.73111093 0.54073572 0.41603082 0.012476496
0.19340405 -0.4392612 -0.13665818 0.71681249 0.60523188 0.34622863 0.010484041
0.36814603 -0.43614388 -0.13564186 -0.98692739 0.14314918 -0.074044988 0.00027461615
0.17772178 -0.42460132 -0.13158761 0.74554205 0.49811709 0.4427714 0.014850106
0.18113104 -0.42587185 -0.13471977 0.73955572 0.48266006 0.46914464 0.013471046
0.36927003 -0.42770493 -0.13522498 -0.98688793 0.14775756 -0.064961262 0.0003666229
0.17465065 -0.41499424 -0.134828 0.71868527 0.40871251 0.56253487 0.010067377
0.3716858 -0.41441321 -0.13647741 -0.98775858 0.13930261 -0.070199147 0.0012749651
0.16723523 -0.40499234 -0.13118933 0.71413636 0.33728945 0.61338824 0.010408022
0.17087269 -0.40944052 -0.13322924 0.72400308 0.3435154 0.59817791 0.006884383
0.37337178 -0.40535679 -0.13579167 -0.99333197 0.064044476 -0.095864363 0.0030190148
0.16609895 -0.39363018 -0.13450758 0.69065708 0.17743033 0.70107877 0.0056379959
0.17019147 -0.39528111 -0.13814402 0.68156183 0.15762819 0.71458155 0.0038541043
0.37454051 -0.39325818 -0.13468865 -0.99394184 -0.018046029 -0.10841599 0.0037951651
0.15909742 -0.38509494 -0.13006479 0.69570011 0.11497917 0.70907062 0.0041522002
0.16478746 -0.38501912 -0.13500649 0.66845304 0.089472741 0.73835307 0.0029572723
0.37329015 -0.38475654 -0.13420612 -0.987957 -0.14514962 -0.053595599 0.012531295
0.15972218 -0.37489486 -0.13064942 -0.670699 -0.026124278 -0.74126947 0.0019172056
0.16299376 -0.37408745 -0.13331455 -0.65218168 -0.0077535436 -0.75802302 0.0012424364
0.17048877 -0.37545604 -0.1395883 0.63940156 0.0047345902 0.76885843 0.00099134608
0.37196323 -0.37583438 -0.13463756 -0.97676194 -0.21278182 -0.025690686 0.013118331
0.16403353 -0.36578462 -0.13374142 -0.63995546 0.01951169 -0.76816422 0.00042678404
0.17094134 -0.36620155 -0.13947955 -0.63239539 0.017731478 -0.77444279 0.00047758457
0.3683528 -0.36347267 -0.13402963 -0.90916836 -0.41061497 0.06934195 0.018053422
0.37036553 -0.36817425 -0.13702896 -0.92463964 -0.37697905 0.054114506 0.017036445
0.16579467 -0.35655302 -0.13471673 -0.62874126 0.048929874 -0.77607363 8.8034387e-05
0.17191853 -0.35484609 -0.13957885 -0.62757379 0.055152651 -0.7766012 5.5696601e-05
0.36328027 -0.35519844 -0.13627383 -0.82307923 -0.53291118 0.19633189 0.014904233
0.16376172 -0.34534815 -0.13233645 -0.62485677 0.057824943 -0.77859509 4.8711212e-05
0.17214406 -0.34752706 -0.13910984 -0.62555826 0.059072416 -0.77793789 3.4674311e-05
0.34982821 -0.34061792 -0.13469329 -0.63972032 -0.70233959 0.31221312 0.0056100334
0.35413212 -0.3448638 -0.135548 -0.70310521 -0.6538626 0.27947593 0.0094486233
0.16661406 -0.33382085 -0.13349031 -0.62128925 0.066425569 -0.78076077 3.9706938e-05
0.17230389 -0.33614716 -0.13816516 -0.62244564 0.069429047 -0.77957755 3.1624324e-05
0.34511572 -0.33724594 -0.1353347 -0.59187889 -0.73087752 0.33984905 0.0031632632
0.16621791 -0.32648492 -0.1324904 -0.61554694 0.068183526 -0.78514522 8.180143e-05
0.17307127 -0.3277351 -0.13799149 -0.61936384 0.071379557 -0.7818526 3.6023168e-05
0.32586399 -0.32475245 -0.13615309 0.51950008 0.7441169 -0.42001143 0.0018007421
0.33312836 -0.3277078 -0.13369556 0.54290414 0.74923247 -0.37934914 0.0015481053
0.16636913 -0.31463221 -0.13149452 -0.6081419 0.060439255 -0.79152423 0.00018475216
0.17394745 -0.31437263 -0.13749425 -0.60671729 0.080322452 -0.79084921 0.00024237488
0.30910903 -0.31318015 -0.1362963 0.50628024 0.71978456 -0.47496367 0.00035800927
0.31270668 -0.31444871 -0.13416462 0.50772464 0.71981198 -0.47337785 0.00039687034
0.16729854 -0.30444342 -0.13141792 -0.59105676 0.061311897 -0.80429637 0.00034414988
0.17409702 -0.30475247 -0.1364909 -0.59407675 0.074575022 -0.80094403 0.00035208877
0.29690069 -0.30227643 -0.13366991 0.49755403 0.71716976 -0.48796272 0.00019360895
0.3023729 -0.30711195 -0.13481575 0.50576115 0.71248555 -0.48638454 9.3226889e-05
0.16819817 -0.29545575 -0.13155034 -0.57814622 0.068734378 -0.81303298 0.0008961311
0.17515409 -0.29318452 -0.13621107 -0.5518713 0.094927102 -0.82850891 0.0018176702
0.27682525 -0.29256299 -0.13867489 0.44206893 0.74485862 -0.4997606 0.00029365727
0.28524074 -0.29235247 -0.13044606 0.45964083 0.74170482 -0.48847139 0.00024646151
0.16880509 -0.28387663 -0.13126457 -0.54012257 0.10239176 -0.83533442 0.0017124306
0.1758775 -0.28213081 -0.13604553 -0.50459158 0.14369273 -0.85131645 0.0034227932
0.18116716 -0.28712708 -0.13999772 -0.4990975 0.15030465 -0.85341096 0.0048121535
0.25782257 -0.28076535 -0.13597032 0.39851043 0.7606796 -0.51240212 9.8580793e-05
0.26306054 -0.28326961 -0.13571523 0.40577444 0.75907671 -0.5090673 0.00016303796
0.27352118 -0.28717157 -0.13319534 0.43535164 0.75081044 -0.49674201 0.00021818127
0.16779403 -0.27591559 -0.13009071 -0.50428635 0.11347739 -0.85604793 0.0026402185
0.17365848 -0.27553716 -0.13385054 -0.48119637 0.14351621 -0.86478502 0.0047575678
0.18248358 -0.27400744 -0.13802832 -0.41140217 0.23825955 -0.8797617 0.0076699802
0.23749873 -0.27169386 -0.13792568 0.32528612 0.73762017 -0.59169704 0.0026629504
0.24496001 -0.27460438 -0.1365808 0.35557675 0.75915301 -0.5452081 0.00099973846
0.25506648 -0.27685782 -0.13240425 0.39957249 0.7584883 -0.51481766 0.00011784116
0.17516349 -0.26412204 -0.13210523 -0.40279081 0.2306859 -0.88574469 0.0075603332
0.18465564 -0.26196209 -0.1354674 -0.28574586 0.34392256 -0.89446449 0.014044084
0.19634689 -0.26190466 -0.13894895 -0.15408209 0.46298787 -0.87286943 0.019585904
0.20143497 -0.26048076 -0.13913667 -0.033976838 0.52612346 -0.84972912 0.019027492
0.21757099 -0.26335794 -0.13754714 0.18550758 0.63864416 -0.74680698 0.011980031
0.22402886 -0.26393306 -0.13568708 0.2779634 0.69389403 -0.66426462 0.0062776795
0.23033729 -0.26677072 -0.13604024 0.29351467 0.71609885 -0.63328624 0.0059640603
0.17757976 -0.25613141 -0.13074623 -0.29479307 0.32487792 -0.89863867 0.01374484
0.18352376 -0.25477776 -0.13260829 -0.24232808 0.36414266 -0.89926481 0.013884437
0.19588177 -0.25625154 -0.13604122 -0.067286596 0.515746 -0.85409522 0.019419547
0.20376125 -0.25428089 -0.1339317 0.079209544 0.57555467 -0.81391805 0.019591799
0.21297923 -0.25700635 -0.1332382 0.19129759 0.66112536 -0.72547811 0.012996991
0.19066025 -0.24721071 -0.13059956 -0.019116275 0.52506542 -0.85084718 0.01691483
0.26375082 -0.49095649 -0.12496287 0.35164854 0.92231339 0.16025424 0.0025854844
0.27394974 -0.49382126 -0.12348356 0.25722182 0.95571065 0.1430178 0.0047412571
0.28379849 -0.49590322 -0.12560502 0.13976051 0.98457992 0.1052113 0.0091411816
0.29364213 -0.49779359 -0.12561142 -0.034307752 0.99750292 0.06173401 0.020426651
0.30373406 -0.49683955 -0.1255971 -0.20349507 0.97609526 -0.076339968 0.014863146
0.31465611 -0.49176729 -0.12360015 -0.38357741 0.9104535 -0.15473501 0.0061035478
0.24582857 -0.48181477 -0.12404822 0.47758269 0.86827749 0.13419743 0.00039213756
0.25431842 -0.48633236 -0.12492839 0.41521868 0.897111 0.15094785 0.0018931599
0.26145121 -0.48968932 -0.12842323 0.36607942 0.91518354 0.16859725 0.002310043
0.31951547 -0.48911363 -0.1231477 -0.40657204 0.89509082 -0.18306176 0.0035023571
0.32482976 -0.48672184 -0.12469888 -0.45372236 0.86759698 -0.20349807 0.00036445155
0.33439332 -0.48200023 -0.12701935 -0.47838321 0.85220867 -0.21187203 6.0528502e-05
0.22884558 -0.47280684 -0.1209809 0.52850407 0.83625531 0.14615194 0.00052715355
0.23678778 -0.47671628 -0.12496188 0.49943781 0.85435313 0.14367551 0.000301386
0.24134636 -0.47896934 -0.12691064 0.488931 0.85942262 0.1494631 0.00047844663
0.337791 -0.47957751 -0.12501734 -0.48153991 0.84933615 -0.21621153 0.00014855774
0.34486309 -0.47583833 -0.12649244 -0.55878222 0.80188143 -0.21153882 0.0051653851
0.35415131 -0.47082776 -0.12857237 -0.68105066 0.70318681 -0.20420147 0.015066734
0.215041 -0.46293887 -0.12420074 0.60353082 0.77791649 0.17491841 0.0010332108
0.22300178 -0.46799672 -0.12627938 0.56389248 0.80801684 0.170687 0.0011081052
0.35438779 -0.46960577 -0.1246807 -0.69187182 0.69422841 -0.19839436 0.017048912
0.36304525 -0.46140563 -0.12617692 -0.85275656 0.49497029 -0.16676544 0.021136565
0.20608692 -0.45489046 -0.12632011 0.63763881 0.74753779 0.18602172 0.00090793677
0.2116417 -0.45965603 -0.12691222 0.62314963 0.76057237 0.1822477 0.0012406596
0.36438036 -0.45571494 -0.12597442 -0.91410917 0.37109828 -0.16337235 0.01953542
0.19495864 -0.44484797 -0.12458222 0.67672789 0.70016289 0.22762087 0.0013457051
0.20047955 -0.4494884 -0.12687503 0.66121554 0.71916622 0.21352741 0.00095357432
0.36602807 -0.44628692 -0.12677424 -0.96446419 0.23555665 -0.11967395 0.0069866972
0.18458192 -0.43469733 -0.12453413 0.69219983 0.66917634 0.27030045 0.0021538297
0.36772972 -0.43332812 -0.12536274 -0.98371774 0.15452419 -0.091769084 0.00047238727
0.16946059 -0.42055038 -0.12086299 0.73087156 0.57968903 0.36026004 0.0097772246
0.17509499 -0.42480141 -0.12500435 0.71197462 0.5909102 0.37936431 0.010639501
0.36850643 -0.42710295 -0.12383298 -0.98419958 0.14631845 -0.099709988 0.00061086501
0.16748916 -0.41642016 -0.12425981 0.7061311 0.52254432 0.47783503 0.011979443
0.17144325 -0.4196139 -0.12789336 0.73932314 0.49972254 0.45130774 0.013073155
0.37129289 -0.4137269 -0.12480009 -0.98711926 0.10423531 -0.12136959 0.0026404122
0.15738408 -0.40431508 -0.12070877 0.73715049 0.44110653 0.5118928 0.010808425
0.16253762 -0.40602461 -0.12554264 0.73040658 0.40883777 0.54713601 0.0086476421
0.37346587 -0.40299803 -0.12759887 -0.99130726 0.046255354 -0.12316759 0.0036524963
0.15655135 -0.39433512 -0.12424308 0.72033173 0.28371468 0.63295197 0.0094847586
0.16122842 -0.39591312 -0.12850808 0.72851944 0.27875689 0.62574267 0.010016048
0.37295255 -0.39674994 -0.12687397 -0.9883306 -0.019482939 -0.15107247 0.002774064
0.15448554 -0.38603041 -0.12443759 0.71425253 0.18278204 0.67559898 0.0054750852
0.37199038 -0.38434654 -0.12738152 -0.98293483 -0.11169371 -0.14616306 0.0046638814
0.1549439 -0.37411281 -0.12666386 0.67986548 0.044536695 0.7319833 0.0023086658
0.36968619 -0.37442595 -0.12282053 -0.97149694 -0.18906978 -0.1429911 0.0072009801
0.37099326 -0.37657401 -0.1283481 -0.97576159 -0.2051511 -0.076172769 0.010357687
0.14885068 -0.36221707 -0.1211597 -0.66356492 -0.012547356 -0.7480135 0.0016966679
0.15642978 -0.36333939 -0.12734772 -0.64809102 0.015943509 -0.76139593 0.00089809252
0.36830682 -0.36437297 -0.12442009 -0.94451922 -0.32753408 -0.024595069 0.015799273
0.14907798 -0.35298845 -0.12076443 -0.63927752 0.027095456 -0.7684986 0.00062607526
0.15589325 -0.35598934 -0.12649426 -0.6388039 0.036297429 -0.7685129 0.00039008982
0.16029534 -0.35017914 -0.12983307 -0.62781525 0.052699212 -0.77657634 8.2201543e-05
0.365702 -0.35479981 -0.12678926 -0.88213116 -0.46634918 0.066053376 0.016412007
0.15535089 -0.34429687 -0.12542859 -0.62635714 0.053609662 -0.77769059 7.227937e-05
0.16059834 -0.34804523 -0.12997238 -0.62790436 0.052232798 -0.77653575 8.9551235e-05
0.35533056 -0.3420313 -0.12501742 -0.75572222 -0.63279974 0.16866635 0.013340903
0.36219278 -0.34784469 -0.12362941 -0.84420234 -0.52644366 0.100893 0.015389179
0.14998384 -0.33984816 -0.12076062 -0.6250456 0.046127833 -0.7792241 0.00016641361
0.15535134 -0.3346898 -0.12474389 -0.61972111 0.057519987 -0.78271145 7.1853909e-05
0.16060258 -0.33497056 -0.12889035 -0.62114888 0.061535452 -0.78127301 5.3645468e-05
0.34649944 -0.33419335 -0.12578693 -0.63842589 -0.71632254 0.28159252 0.0071233255
0.35253295 -0.3382403 -0.12174684 -0.75340986 -0.63328749 0.1769761 0.013459751
0.15574825 -0.3273696 -0.12437396 -0.61373824 0.055986334 -0.78752208 0.00013374681
0.33477274 -0.32483271 -0.12556371 -0.57260901 -0.72981822 0.37347594 0.0026528069
0.34095025 -0.32888004 -0.12395479 -0.607853 -0.72086787 0.33296281 0.0023978562
0.15388249 -0.31554362 -0.12190608 -0.5991497 0.041119531 -0.7995804 0.00022806149
0.16212665 -0.3163217 -0.12833072 -0.60702246 0.05607646 -0.79270369 0.00020132108
0.31515196 -0.31218234 -0.1281354 -0.53147393 -0.71008199 0.46186489 0.00078803726
0.32503939 -0.31629658 -0.12322107 -0.57155746 -0.70541817 0.41917452 0.0022239925
0.15660642 -0.30806786 -0.12369993 -0.59293747 0.044120833 -0.80403882 0.00023436137
0.1642444 -0.30866188 -0.12929565 -0.59821856 0.056003802 -0.79937357 0.00028594022
0.3045916 -0.30256829 -0.12577623 -0.51770294 -0.71121347 0.47556192 0.00025778412
0.3130433 -0.3068054 -0.12264509 -0.53982675 -0.7013188 0.46555242 0.00046997386
0.15502302 -0.29572153 -0.12239529 0.57532752 -0.033289041 0.81724536 0.00013664845
0.16259278 -0.2917456 -0.1275274 -0.57098281 0.048706967 -0.81951582 0.00042577754
0.2951867 -0.29500729 -0.1247977 0.49379629 0.72463948 -0.48069006 0.00019909092
0.15599552 -0.28441355 -0.12265141 -0.56233215 0.052191053 -0.82526284 0.00050156191
0.16400376 -0.28606427 -0.12809137 -0.55487013 0.061267629 -0.82967788 0.00071357249
0.2673707 -0.28066725 -0.12856655 0.4178957 0.75965828 -0.49827942 0.00014855515
0.27480111 -0.28289157 -0.12512261 0.43704998 0.75603062 -0.48724222 0.00018283921
0.28459954 -0.28827959 -0.12451938 0.45849884 0.74514693 -0.48428801 0.00021345452
0.15890367 -0.27403608 -0.12385219 -0.53822869 0.081257708 -0.83887243 0.0013218333
0.16377436 -0.27599549 -0.12731892 -0.52266383 0.10749602 -0.8457346 0.0023051652
0.24838448 -0.27050304 -0.12821449 0.39256209 0.74970931 -0.53275794 0.00092327426
0.25697193 -0.27221277 -0.12433066 0.40871808 0.75654614 -0.51047772 0.00024244694
0.26627129 -0.27686185 -0.12350035 0.42245117 0.75660115 -0.49908894 0.00018141093
0.2704556 -0.27734476 -0.12032636 0.43735972 0.75642616 -0.48634967 0.0001645114
0.15752631 -0.26847833 -0.12255734 -0.52406019 0.10170179 -0.84558719 0.0018259364
0.16662158 -0.26539472 -0.12826124 -0.48460206 0.15435292 -0.8610087 0.0034727745
0.17126137 -0.26127884 -0.12964933 -0.41464204 0.22129188 -0.88266748 0.0055698273
0.23723215 -0.26451847 -0.12782499 0.37052554 0.73803383 -0.56392986 0.0019529753
0.24446025 -0.26637441 -0.12518732 0.38753948 0.74721199 -0.53989571 0.0010319169
0.25411913 -0.26981071 -0.12302872 0.41290984 0.75258201 -0.51295787 0.0002595406
0.15721399 -0.25620848 -0.12160563 -0.47561663 0.15679003 -0.86556673 0.0035391443
0.16397053 -0.25581256 -0.12490145 -0.43387613 0.202801 -0.87785155 0.0059908656
0.17269409 -0.25462621 -0.12824023 -0.3396475 0.297804 -0.89216155 0.012669523
0.21744238 -0.25221407 -0.12685661 0.32473189 0.69334888 -0.64328563 0.0046791062
0.22455955 -0.25403699 -0.12394579 0.3721337 0.69992298 -0.60961008 0.0033146888
0.16624343 -0.2444852 -0.12257461 -0.29429594 0.33732486 -0.8942045 0.0099299988
0.17412367 -0.24579042 -0.12617892 -0.22324257 0.39180681 -0.89255261 0.017424038
0.18452686 -0.24401855 -0.12792389 -0.08860305 0.51405716 -0.85316741 0.01690747
