# .PCD v0.7 - Point Cloud Data file format
VERSION 0.7
FIELDS x y z normal_x normal_y normal_z curvature
SIZE 4 4 4 4 4 4 4
TYPE F F F F F F F
COUNT 1 1 1 1 1 1 1
WIDTH 585
HEIGHT 1
VIEWPOINT 0 0 0 1 0 0 0
POINTS 585
DATA ascii
0.054853994 0.10101906 -0.2313596 -0.12351875 -0.86651999 0.48361775 0.029917315
0.010604957 -0.11042999 -0.22027476 0.079139099 0.88143605 0.46562603 0.026882805
0.026271047 -0.11063737 -0.2242642 -0.029949952 0.86606997 0.49902475 0.020830734
0.033410352 -0.11041108 -0.22408305 -0.081403375 0.87170088 0.48322982 0.025470503
0.042219866 -0.11014738 -0.2213112 -0.14256173 0.88245475 0.44827411 0.026522364
-0.045241483 -0.10081587 -0.2209543 0.12217493 0.83063859 0.54324293 0.010396917
-0.033978116 -0.10188963 -0.22276562 0.10822415 0.81893331 0.56359184 0.011520865
-0.024042213 -0.10285335 -0.2243263 0.13859496 0.79187101 0.59475362 0.011462889
-0.015591615 -0.1044887 -0.22381687 0.12686533 0.80748862 0.57607931 0.01320725
-0.0023608413 -0.10564698 -0.22617665 0.13734363 0.75448495 0.64178592 0.021837898
0.0049517541 -0.10676888 -0.22582699 0.13486706 0.77078503 0.62265658 0.020168997
0.015365385 -0.10776383 -0.22717601 0.069978863 0.78388065 0.61695552 0.023518439
0.024579151 -0.10890093 -0.22833882 0.017384799 0.7911734 0.6113447 0.029992079
0.034134403 -0.10671667 -0.22931857 -0.094548158 0.7495023 0.65521532 0.027288236
0.043165553 -0.1063894 -0.22699045 -0.15216002 0.76156616 0.62997174 0.02920912
0.053989865 -0.10654219 -0.22461501 -0.16927019 0.79071772 0.58831382 0.023580324
0.061839778 -0.1053573 -0.22394727 -0.19729722 0.77393746 0.60174286 0.023414768
0.075276941 -0.10324514 -0.22219786 -0.17604373 0.74584454 0.64243639 0.025847761
-0.094123594 -0.091541797 -0.22348309 0.14027837 0.79690039 0.58759832 0.011883301
-0.08746092 -0.091437444 -0.22621977 0.11377161 0.78517801 0.60872942 0.013650264
-0.074226461 -0.093834512 -0.22579139 0.15143985 0.755808 0.6370402 0.013518392
-0.064587913 -0.095828019 -0.2249216 0.12028748 0.76004493 0.63864124 0.014790428
-0.055120606 -0.097342148 -0.2250669 0.12087099 0.76545596 0.63203436 0.01443611
-0.046307534 -0.098424494 -0.22593886 0.079734556 0.76473308 0.63939488 0.01519478
-0.03756059 -0.099054381 -0.22780478 0.11363048 0.76331139 0.63595903 0.013408707
0.052968305 -0.098964415 -0.22968881 -0.17293803 0.65419716 0.736287 0.020095114
0.066507615 -0.09744101 -0.22756989 -0.20445837 0.63646668 0.74371159 0.015157645
0.075056896 -0.096493855 -0.22622323 -0.19512095 0.63713658 0.74564385 0.016550293
0.08388415 -0.094193742 -0.22561148 -0.17935649 0.60098022 0.77888 0.0093426742
0.095936604 -0.093888626 -0.22310627 -0.17601079 0.60340047 0.77777129 0.0082444753
0.10576108 -0.09305644 -0.22140777 -0.1687298 0.58089644 0.79629743 0.0071023423
0.11494093 -0.090942249 -0.220608 -0.18156654 0.56461865 0.8051331 0.0063804784
-0.14428627 -0.081041627 -0.22209458 0.33844614 0.66516978 0.66558498 0.021317404
-0.13316293 -0.082886517 -0.22455795 0.27819851 0.65320665 0.70422065 0.017168416
-0.12464543 -0.08589723 -0.22375935 0.24933365 0.74053454 0.62405235 0.016672635
-0.11375927 -0.087195329 -0.22589751 0.19185011 0.73952055 0.64521533 0.017207419
-0.10614047 -0.087521195 -0.22802447 0.12791073 0.71605641 0.68622291 0.018469248
-0.097359248 -0.089227848 -0.22747867 0.11504866 0.77370858 0.62300783 0.015837805
0.085413694 -0.088123381 -0.22884603 -0.18540207 0.52219361 0.83243018 0.0014582082
0.095010817 -0.085013151 -0.2285399 -0.18681897 0.50498581 0.84266728 0.00013709297
0.10584359 -0.084739223 -0.22628805 -0.18779117 0.50202316 0.84421986 7.1449847e-07
0.11665113 -0.084462956 -0.22404315 -0.18452461 0.51794201 0.83527642 0.0014235844
0.12311328 -0.083964683 -0.22289705 -0.18986978 0.50479835 0.84209746 0.0001771534
0.13229716 -0.083711743 -0.22100012 -0.18903154 0.50438809 0.84253174 0.00018272706
-0.15340744 -0.073563591 -0.22113302 0.36749142 0.53677869 0.7594859 0.0212486
-0.1446041 -0.073706403 -0.22491114 0.37129188 0.50967348 0.77612835 0.014881768
-0.13558224 -0.075584687 -0.22812039 0.32381275 0.53306723 0.78165507 0.012972635
0.10687174 -0.078930706 -0.22948006 -0.1885287 0.49839303 0.84620404 1.0881798e-05
0.11968496 -0.078221075 -0.22704361 -0.18870991 0.49823505 0.84625667 0
0.12482452 -0.075180978 -0.22768921 -0.18880351 0.4981139 0.84630716 0
0.13410828 -0.075074658 -0.22568369 -0.18889159 0.49790838 0.84640843 2.4814876e-06
0.1448589 -0.075280741 -0.22316371 -0.18919528 0.49773949 0.84643996 7.2979503e-07
0.15439446 -0.07230451 -0.22277218 -0.18965396 0.49738953 0.84654301 4.8763784e-05
0.16420475 -0.072121426 -0.22067812 -0.19561745 0.49835381 0.84461665 5.0817056e-05
-0.16164553 -0.062729999 -0.22169165 0.3783837 0.37776744 0.84505475 0.0033878335
-0.15442578 -0.064702019 -0.22408041 0.37669972 0.38080201 0.84444487 0.0037701887
-0.14364812 -0.065525562 -0.22845769 0.3610144 0.39480451 0.84486568 0.0045431512
0.13423426 -0.067967504 -0.2298402 -0.18920013 0.49773538 0.84644133 0
0.14352119 -0.065780617 -0.22904129 -0.18949156 0.49740556 0.84656996 0
0.15331912 -0.06379915 -0.22800556 -0.18980363 0.49711606 0.84667009 0
0.16399063 -0.064922258 -0.22495155 -0.19189109 0.49752206 0.8459608 2.2553935e-05
0.1740147 -0.065132409 -0.22257875 -0.22463991 0.49993578 0.83642155 0.00068122317
0.18256456 -0.062312219 -0.22231536 -0.26715496 0.50157475 0.82283115 0.0017429028
-0.17372853 -0.053169772 -0.22008908 0.3772772 0.33268851 0.86428022 1.7007196e-05
-0.16534153 -0.053517975 -0.22360738 0.37667155 0.33545411 0.86347502 8.2036662e-05
-0.15681325 -0.055315088 -0.22663276 0.37795806 0.34170488 0.86045659 0.00030700883
0.16504568 -0.059554696 -0.22786519 -0.19417414 0.49758053 0.84540528 3.3913358e-05
0.17595382 -0.056029625 -0.2274863 -0.22574285 0.50279623 0.83440763 0.00078557356
0.18590838 -0.055370327 -0.22562718 -0.28269783 0.49601063 0.82100874 0.001520469
0.1921386 -0.053882379 -0.22410601 -0.32171234 0.49767295 0.80549544 0.0017340578
0.20090735 -0.051338214 -0.22117889 -0.36183065 0.49669456 0.78890634 0.00085937814
-0.18156573 -0.042463671 -0.22077347 0.37646115 0.33136368 0.86514455 5.9041515e-05
-0.17466334 -0.043972038 -0.22320147 0.37646952 0.33124101 0.86518782 7.3890064e-06
-0.16496707 -0.045310538 -0.22691089 0.37669033 0.33103848 0.86516935 8.4816502e-06
-0.15928979 -0.048769265 -0.22805922 0.37669939 0.33106107 0.86515665 0
0.18542901 -0.049236309 -0.22934717 -0.27024743 0.50247961 0.8212676 0.0014085122
0.19520658 -0.048089523 -0.22624572 -0.33568841 0.49853528 0.79923451 0.0013002018
0.20609634 -0.043454915 -0.22356246 -0.38720879 0.49819213 0.77580535 0.00024515021
-0.19071314 -0.033181537 -0.22034258 0.37290284 0.34268591 0.86227012 8.6573222e-05
-0.18402097 -0.034066606 -0.22291753 0.37339374 0.33885595 0.86357039 2.9225959e-05
-0.17271902 -0.034929384 -0.22750805 0.37599236 0.33466467 0.86407715 0
-0.16867428 -0.033028938 -0.22999626 0.3749702 0.33708337 0.863581 9.5112682e-06
0.20610996 -0.037574816 -0.22734995 -0.37703881 0.49764434 0.78114772 0.00049797527
0.21394029 -0.034483466 -0.22526488 -0.39978921 0.4965525 0.77045721 2.7612573e-06
0.22201613 -0.033887643 -0.22144151 -0.40112236 0.49671915 0.76965642 0
-0.19534853 -0.024260569 -0.22180757 0.36722502 0.354922 0.85975361 8.0923703e-05
-0.18364051 -0.025420656 -0.22639148 0.36755091 0.34961537 0.86178619 7.06715e-05
-0.17687526 -0.027645992 -0.22848542 0.3702879 0.34269294 0.86339355 5.0086433e-05
0.21518311 -0.027251607 -0.22928423 -0.39892977 0.49641392 0.7709918 0
0.22429752 -0.024756078 -0.2261456 -0.40105674 0.49671558 0.7696929 5.1535176e-06
0.23384258 -0.024296261 -0.22146893 -0.40107003 0.4967089 0.76969028 0
0.24082698 -0.020559462 -0.22024116 -0.41457102 0.45102626 0.79038352 0.0034515199
-0.20373353 -0.014071506 -0.22272602 0.37307504 0.26024452 0.89055479 0.007391952
-0.19714046 -0.014212237 -0.22540934 0.36320779 0.27843505 0.88913107 0.0063053053
-0.18338473 -0.01985817 -0.22864823 0.3677398 0.32303503 0.87201828 0.0012157068
0.22718786 -0.019306375 -0.22815645 -0.41189286 0.45261842 0.79087347 0.0031012807
0.23525576 -0.013982616 -0.22738822 -0.44907057 0.34357426 0.82479841 0.016984867
0.24408959 -0.014119974 -0.22269674 -0.42048356 0.36816183 0.82924688 0.012922277
-0.22216064 -0.0016399901 -0.22062463 0.37179929 0.038342357 0.92752093 0.017169559
-0.21515568 -0.0028223528 -0.22301242 0.37177929 0.043211594 0.92731488 0.017000943
-0.20471995 -0.0056506745 -0.22609127 0.37163019 0.13301195 0.91880292 0.01337638
-0.19729263 -0.0064174831 -0.22884138 0.3952511 0.16071865 0.90440369 0.014019474
0.24554417 -0.0069103548 -0.22659139 -0.46408582 0.24236539 0.8519879 0.025107665
0.25517663 -0.0039742361 -0.22346716 -0.42472887 0.14878795 0.89301044 0.033202518
-0.21501131 0.0045645605 -0.22258632 0.37295377 -0.11242837 0.92101324 0.012900252
-0.20508514 0.0066064349 -0.22593752 0.37082312 -0.13150352 0.91934597 0.012351427
-0.19628325 0.0080894781 -0.22903487 0.38503742 -0.177086 0.905752 0.011179421
0.24717756 0.005545794 -0.22665185 -0.46830809 -0.15535136 0.86980087 0.034544375
0.25543338 0.0053697876 -0.22246277 -0.40986273 -0.15071577 0.89960957 0.031669401
0.26129419 0.0021532704 -0.22146678 -0.44906983 -0.096394099 0.88828182 0.037651781
-0.21298952 0.011486121 -0.22077201 0.37005574 -0.19713387 0.90785295 0.0099656004
-0.2053895 0.015707383 -0.22231777 0.37188402 -0.24916586 0.89421397 0.0062414031
-0.19514811 0.01487559 -0.22690322 0.3739754 -0.24292101 0.89505959 0.0061898069
-0.18598951 0.017640062 -0.22965735 0.37472051 -0.27845153 0.88433552 0.0027738211
0.2253907 0.01922578 -0.22925213 -0.41109073 -0.45481941 0.79002768 0.003812718
0.23598158 0.015119775 -0.22636056 -0.42194864 -0.37751412 0.82428312 0.014123903
0.24084584 0.01367236 -0.22475204 -0.41867504 -0.35002926 0.83796823 0.018729566
-0.20108706 0.020987315 -0.22208358 0.36288184 -0.29430065 0.88414031 0.0020014923
-0.1958572 0.025168639 -0.22265735 0.36243147 -0.33396721 0.87012029 2.2668633e-05
-0.18472929 0.024711179 -0.2274684 0.36247087 -0.33396539 0.87010461 9.7570746e-06
-0.1793493 0.028361874 -0.22830838 0.36247221 -0.33397022 0.87010217 2.2227334e-05
0.2177455 0.026254866 -0.22868085 -0.39786658 -0.49615422 0.77170801 2.1231613e-06
0.22572301 0.024144679 -0.22591263 -0.40005857 -0.49551871 0.77098262 2.3573881e-05
0.2323956 0.023532864 -0.22284412 -0.40408644 -0.48235521 0.77720493 0.00072036695
-0.19546819 0.032194272 -0.22012295 0.36259568 -0.33503014 0.86964315 4.1032599e-05
-0.18709248 0.035664264 -0.22228016 0.36259702 -0.33450958 0.86984301 0
-0.17539996 0.034769572 -0.22749422 0.36246499 -0.33396962 0.87010533 2.9818517e-05
-0.16771363 0.038672786 -0.22919801 0.36253262 -0.33404896 0.87004673 0
0.20699067 0.033956472 -0.22927988 -0.38131872 -0.49573687 0.78028268 0.0003096376
0.21401446 0.034117859 -0.22554247 -0.39684397 -0.4966943 0.77188706 0
0.22065701 0.030011926 -0.22475301 -0.39901748 -0.49616349 0.77110761 0
-0.17302567 0.045987014 -0.224178 0.36391479 -0.33669293 0.86844909 1.5590687e-05
-0.16535063 0.045144916 -0.22769834 0.3625114 -0.33404246 0.87005806 1.2600478e-05
-0.15737596 0.04923331 -0.22945118 0.36251828 -0.33493599 0.8697117 0
0.18881327 0.048500136 -0.22901373 -0.29134065 -0.49254873 0.82007098 0.0017752182
0.19568655 0.047609694 -0.22632673 -0.33959004 -0.50278741 0.79491097 0.0010708111
0.20385146 0.044745784 -0.22394912 -0.37610546 -0.49951619 0.7804026 0.0005061187
0.2133148 0.041050471 -0.22143576 -0.39390108 -0.49727473 0.77301991 4.4928111e-05
-0.17190477 0.053484149 -0.22176751 0.36669359 -0.34779087 0.86288887 0.00012675769
-0.1643416 0.056056563 -0.22393078 0.36360556 -0.35580665 0.8609255 0.00058964407
-0.15654048 0.058378089 -0.22628942 0.3654784 -0.35560465 0.8602156 0.00055287452
-0.14828824 0.059567939 -0.22927034 0.36450323 -0.35177839 0.86220026 0.00040940242
0.16514459 0.057778705 -0.22888538 -0.19708012 -0.49768838 0.84466898 0.00014118585
0.17399108 0.056333017 -0.22774866 -0.22334401 -0.50212872 0.83545452 0.00056189526
0.18677962 0.056077305 -0.22493869 -0.27382776 -0.50182277 0.82048291 0.0014320641
0.19428149 0.054857951 -0.22238144 -0.33373755 -0.49499151 0.80224848 0.0014504755
-0.16329278 0.064150296 -0.22126129 0.3617253 -0.41747528 0.83358812 0.0059266235
-0.15353486 0.064671353 -0.22512609 0.36981466 -0.43493441 0.82101721 0.0086611835
-0.14563155 0.066432469 -0.22774239 0.34613103 -0.43675727 0.8303231 0.0076059615
0.14466782 0.067076705 -0.22802326 -0.20261413 -0.48171553 0.85258293 0.00012230875
0.15532798 0.065818772 -0.22636938 -0.19666795 -0.49159342 0.84832639 3.9711445e-05
0.16505539 0.064780943 -0.22479558 -0.19418144 -0.4959358 0.8463695 1.5203823e-05
0.17389362 0.063747935 -0.2234185 -0.22333053 -0.49807873 0.83787894 0.00067410764
0.185534 0.06075222 -0.22256458 -0.27730069 -0.49602264 0.82284015 0.0014618738
-0.15419713 0.07477098 -0.220735 0.31335494 -0.55707306 0.76907629 0.01641262
-0.14418402 0.074264005 -0.22529899 0.33758995 -0.56170249 0.75533003 0.017482599
-0.13268065 0.077542529 -0.22887321 0.28994563 -0.58504289 0.75740105 0.014745374
0.12505706 0.07666634 -0.22783981 -0.22857442 -0.46166456 0.85709953 0.00016803581
0.13637996 0.073282979 -0.22649151 -0.21528086 -0.46973193 0.85615784 0.00013827853
0.14660473 0.074751779 -0.22308464 -0.21002458 -0.47750941 0.85315555 0.00015017866
0.15481129 0.073043622 -0.22224483 -0.20245601 -0.48478955 0.85087633 7.1492599e-05
0.16753456 0.071624391 -0.22022261 -0.21349043 -0.49191654 0.84406167 0.00038053884
-0.14461526 0.081405558 -0.22148074 0.32303208 -0.67212963 0.6662522 0.022057898
-0.13565296 0.082774863 -0.22336209 0.28012601 -0.71098983 0.64499837 0.019825269
-0.12629248 0.085423127 -0.22403516 0.24313393 -0.7235359 0.64605087 0.019725589
-0.11691687 0.086346082 -0.224997 0.16163808 -0.7507692 0.6404832 0.018214773
-0.10539278 0.087189294 -0.2246552 0.095573686 -0.7929846 0.60169852 0.022713663
-0.093291 0.08875142 -0.224213 0.11840468 -0.82963187 0.54561096 0.023170097
-0.08184696 0.089364447 -0.22725539 0.12790392 -0.84205055 0.52401477 0.019629203
-0.07929714 0.089540973 -0.22777836 0.10590643 -0.85887891 0.50110954 0.021036722
0.097090647 0.089526474 -0.22884294 -0.21823291 -0.57297528 0.78998339 0.017131316
0.10404599 0.085544907 -0.22900261 -0.21935683 -0.50421953 0.83525157 0.0052610952
0.11532518 0.085396878 -0.2259658 -0.22491658 -0.50784349 0.83156937 0.0049173646
0.12543288 0.084875695 -0.22344738 -0.22658142 -0.50558984 0.83249009 0.0045806733
0.13343713 0.083971091 -0.22171 -0.22551696 -0.50578976 0.83265764 0.0036020824
0.14331907 0.082001247 -0.22001073 -0.21649803 -0.49711266 0.84024251 0.001664536
-0.086201862 0.090591669 -0.22043362 0.10628122 -0.90895414 0.40312111 0.011858298
-0.074049987 0.091170236 -0.22394487 0.087673828 -0.88982671 0.44779649 0.020418322
-0.064236701 0.091694959 -0.22655745 0.092031866 -0.86859977 0.48689279 0.02257067
-0.055485029 0.09286911 -0.22614862 0.10546771 -0.88511878 0.45325637 0.020070191
-0.043867551 0.094282568 -0.22616896 0.13746181 -0.87220061 0.46943617 0.02125136
-0.036312815 0.095303141 -0.22578891 0.11575232 -0.87969786 0.46123001 0.019694243
-0.025138628 0.096765891 -0.22540818 0.12367976 -0.88600159 0.44688299 0.016017374
-0.01755573 0.098186515 -0.22348997 0.12635089 -0.91638047 0.37984508 0.01030873
-0.0074614109 0.099060915 -0.2248795 0.12750407 -0.90680587 0.4018032 0.01078399
0.0067981482 0.099835917 -0.22862712 0.15147343 -0.88834035 0.4334828 0.019954234
0.078699753 0.098238043 -0.22936955 -0.17369023 -0.72375488 0.66784036 0.028742224
0.086337738 0.097815573 -0.22748144 -0.1358441 -0.72082746 0.67967206 0.028176334
0.095743112 0.093960881 -0.22689839 -0.15319769 -0.67033255 0.72607493 0.030696375
0.10520903 0.096601166 -0.22290556 -0.20447126 -0.71240759 0.67131728 0.031911708
0.11358038 0.094534278 -0.22167404 -0.19678405 -0.71140981 0.67466456 0.035085998
0.12194181 0.091522582 -0.22093883 -0.20567691 -0.61418456 0.76188868 0.019257706
-0.0011999203 0.10074542 -0.22131214 0.14277095 -0.92759228 0.34523764 0.0090502519
0.004863455 0.10096665 -0.22332573 0.12690987 -0.92069668 0.36906856 0.011923668
0.014126571 0.10141583 -0.22597067 0.10323978 -0.91762364 0.38380778 0.020110097
0.026169613 0.10284988 -0.22604828 0.047203947 -0.91854286 0.39249298 0.01808681
0.033203594 0.10290202 -0.22631353 -0.011309288 -0.93352419 0.35833615 0.015607668
0.044892717 0.10223583 -0.22515061 -0.12082798 -0.91147661 0.39320594 0.020063156
0.054071382 0.1018541 -0.22525255 -0.12006263 -0.89654213 0.4263767 0.024079449
0.06478107 0.10191695 -0.22366604 -0.094521761 -0.9001562 0.42518756 0.026629649
0.075900123 0.10167908 -0.22426552 -0.093252428 -0.84590733 0.52511388 0.032213081
0.083246313 0.10152875 -0.22461088 -0.13817807 -0.8013224 0.58205611 0.030669907
0.092731014 0.1016954 -0.22238329 -0.13204606 -0.81235635 0.56801492 0.036736842
0.10533097 0.10129058 -0.22023587 -0.17073578 -0.80745876 0.56467664 0.035022344
-0.011189409 -0.11067156 -0.21154743 0.10575724 0.92283976 0.37038127 0.0097046038
-0.0051617795 -0.11133272 -0.2122217 0.086756527 0.93727899 0.3376112 0.010838932
0.0056266235 -0.11124418 -0.2153921 0.086676292 0.93177783 0.35252994 0.016570512
0.015342285 -0.11177602 -0.21483517 0.039673258 0.94276959 0.33107644 0.016977614
0.025604149 -0.11167936 -0.21669777 -0.011514605 0.93396211 0.35718629 0.018367691
0.033630893 -0.11147721 -0.21483158 -0.075140707 0.93709224 0.34089878 0.020167643
0.043721974 -0.11099916 -0.21316296 -0.11764977 0.94101763 0.31724492 0.021583928
0.052010823 -0.11047395 -0.2129267 -0.12853391 0.93357164 0.33454895 0.020688029
-0.073222458 -0.10015234 -0.21194208 0.14825962 0.88133198 0.44863459 0.0029532423
-0.063299932 -0.10083433 -0.21413213 0.1523951 0.87138617 0.46632802 0.0043339301
-0.05574004 -0.10180216 -0.2147914 0.14517574 0.86740142 0.47596091 0.005204468
-0.043496393 -0.10424596 -0.21388575 0.13670154 0.88219559 0.45060354 0.0046800501
-0.036788248 -0.1057816 -0.21294664 0.13996013 0.90170974 0.40906084 0.0029257569
-0.025145337 -0.10705662 -0.21444727 0.11211241 0.90597188 0.40822268 0.0053879716
-0.014597462 -0.10818959 -0.2158566 0.12701316 0.89796132 0.42134672 0.0075169005
-0.00477975 -0.10904238 -0.21762268 0.10431023 0.89361179 0.43655163 0.014758293
0.056644008 -0.10947641 -0.21882021 -0.16577168 0.86451584 0.47448081 0.028422905
0.065636441 -0.10931452 -0.21507251 -0.13372831 0.89832902 0.41847557 0.027965253
0.075628422 -0.10895754 -0.21242404 -0.13165988 0.91580105 0.37943915 0.024079466
0.086605728 -0.1066618 -0.21609829 -0.13038604 0.83102548 0.54073673 0.026042121
0.094789304 -0.10543317 -0.21619484 -0.1365978 0.7969923 0.58834034 0.027293462
0.10508516 -0.10471173 -0.21409491 -0.13744493 0.81474149 0.56329858 0.026544223
0.11388641 -0.10426011 -0.21261922 -0.15696464 0.80982029 0.56529039 0.027172133
0.12321641 -0.1024981 -0.21195836 -0.14155164 0.795102 0.58972526 0.028879691
0.1313211 -0.10236483 -0.21023138 -0.13819395 0.79801643 0.58657676 0.025980357
-0.12156324 -0.091027364 -0.21433841 0.20800638 0.86340725 0.45963171 0.0041706609
-0.1135204 -0.091913007 -0.2153641 0.17959642 0.86007935 0.4775025 0.0059532593
-0.10547466 -0.0929695 -0.21600612 0.15141292 0.86542046 0.47762069 0.005424899
-0.095778674 -0.094517164 -0.21616182 0.13302501 0.8707158 0.4734537 0.005063598
-0.082961597 -0.097138345 -0.21507208 0.15317202 0.88225496 0.44515663 0.0022930317
-0.077765889 -0.097817101 -0.21549453 0.14751381 0.87461168 0.46183783 0.0030889034
-0.065694369 -0.098867908 -0.21766099 0.13500929 0.8658452 0.48175156 0.0060096639
-0.056007735 -0.099502839 -0.21986842 0.14982124 0.84052259 0.52064896 0.0095824972
0.10465912 -0.098051615 -0.21871123 -0.13374428 0.69959956 0.70190656 0.021829192
0.11579709 -0.097225189 -0.21671677 -0.14247744 0.66650283 0.73176104 0.019680414
0.12492803 -0.093071856 -0.21712887 -0.17818199 0.60285586 0.77769911 0.01235416
0.13413851 -0.095898956 -0.21341196 -0.17079465 0.66487736 0.72716379 0.020515988
0.1444481 -0.093422018 -0.21257415 -0.17052349 0.63011342 0.75754797 0.014230725
0.15126443 -0.093340009 -0.21110396 -0.17690563 0.59481084 0.78415841 0.01059755
-0.16071764 -0.080557622 -0.21396399 0.34579653 0.67578638 0.65095121 0.023743365
-0.15288173 -0.081686772 -0.21582882 0.32555687 0.70153844 0.63392162 0.020642104
-0.14536448 -0.08307486 -0.21676821 0.33129591 0.74845231 0.57451034 0.016117251
-0.13494021 -0.087428987 -0.2134604 0.28359607 0.81406289 0.50682837 0.011751528
-0.1260612 -0.088489629 -0.21718344 0.24707051 0.82963216 0.5006662 0.010135069
-0.11859413 -0.08928778 -0.21937044 0.19419885 0.84731925 0.49430442 0.0063459314
0.12442673 -0.089012548 -0.21963137 -0.18230158 0.53591484 0.82435513 0.0027832291
0.13543484 -0.088246725 -0.21763015 -0.18102875 0.54881716 0.81610548 0.0068102246
0.14552648 -0.084033556 -0.21786349 -0.1882191 0.50532573 0.84215164 0.00015466024
0.15555105 -0.086837485 -0.21397707 -0.18667525 0.55243623 0.81238329 0.0068194773
0.16528389 -0.085088015 -0.21282546 -0.20229861 0.53522259 0.82012933 0.0033148469
0.17460227 -0.083714552 -0.21154046 -0.25235382 0.51852727 0.81697428 0.0020193721
0.1856057 -0.080867216 -0.21009599 -0.31624663 0.50576353 0.80261528 0.0013925596
-0.17578493 -0.073234938 -0.21151607 0.34171021 0.60264874 0.72114402 0.021867767
-0.16566017 -0.076095156 -0.21466412 0.35017371 0.61497694 0.70652789 0.024070594
-0.15643676 -0.075982429 -0.21888857 0.37746772 0.55650985 0.74014521 0.021734683
0.15482622 -0.078624636 -0.21896583 -0.19023529 0.49744353 0.84638077 0
0.16566776 -0.074650548 -0.21886539 -0.20436221 0.49912992 0.84208393 0.00027160894
0.17571762 -0.074207358 -0.21687025 -0.24415357 0.50265843 0.82929093 0.0010286699
0.18380681 -0.075431205 -0.21411374 -0.29662099 0.49860603 0.8144986 0.0016335712
0.19386876 -0.072202981 -0.21138179 -0.35227257 0.49682415 0.79313922 0.00097942236
-0.18408601 -0.065217741 -0.2109696 0.35937196 0.44209173 0.82183135 0.0091344658
-0.17525311 -0.063925005 -0.21530995 0.39293957 0.42922491 0.81324315 0.0090498487
-0.16730885 -0.06541568 -0.21819833 0.37336031 0.42355564 0.82535005 0.0080436124
0.17824349 -0.068049379 -0.21991771 -0.25015891 0.50458986 0.82632297 0.001400948
0.18650916 -0.06862703 -0.21720347 -0.29820159 0.50578749 0.8094781 0.0013724646
0.19667524 -0.065374494 -0.21432607 -0.36462218 0.49959719 0.78578198 0.00074254978
0.20429865 -0.061988048 -0.21253929 -0.38913965 0.49754208 0.77525622 0.00020467334
-0.1930583 -0.05304322 -0.21172172 0.37812212 0.33554244 0.86280644 8.1519829e-05
-0.18566519 -0.054486327 -0.21438833 0.37481552 0.34667319 0.85984361 0.0010831249
-0.17652306 -0.055520911 -0.21797277 0.37855619 0.34777239 0.85775846 0.0010244747
0.19738944 -0.058466338 -0.21841195 -0.35542408 0.49625462 0.79208905 0.0010542478
0.20568515 -0.055500526 -0.21600337 -0.3924548 0.49760699 0.77354157 8.6656641e-05
0.21320881 -0.052711874 -0.21388282 -0.39903882 0.49675292 0.77071691 1.0213186e-06
0.22102186 -0.050514098 -0.21123013 -0.40105996 0.49669784 0.76970261 0
-0.20282397 -0.044450205 -0.21075794 0.37528828 0.33291852 0.86505717 2.7893237e-05
-0.19467387 -0.045668215 -0.21384026 0.37591603 0.33205909 0.86511493 1.3895095e-05
-0.18522906 -0.044776678 -0.21829349 0.37647873 0.33136308 0.8651371 1.783912e-05
0.21833739 -0.045473021 -0.215882 -0.40109059 0.49671322 0.76967674 0
0.22267278 -0.046073481 -0.21323556 -0.40102285 0.49670327 0.76971859 0
0.23236226 -0.041877761 -0.21089448 -0.40105873 0.49670967 0.7696957 0
-0.2125878 -0.032112397 -0.21122789 0.3693344 0.35098833 0.86046457 7.44305e-05
-0.20523299 -0.034437541 -0.21354032 0.37112337 0.34435466 0.86237311 6.0491428e-05
-0.19564103 -0.033564862 -0.21805041 0.37213632 0.34263647 0.86262095 6.5486842e-05
-0.18838789 -0.039175425 -0.21906145 0.37490961 0.33526117 0.86431634 2.0658146e-05
0.22492397 -0.036626883 -0.21815868 -0.40103614 0.49673524 0.76969099 3.3355642e-05
0.23509754 -0.035481472 -0.21359694 -0.40103543 0.49671412 0.76970494 0
0.24405889 -0.031207023 -0.21168609 -0.40104535 0.49670896 0.76970297 0
-0.22444463 -0.021575162 -0.21073365 0.36557248 0.34633103 0.86395121 0.0013347301
-0.2154994 -0.024793135 -0.21303701 0.36486018 0.36432448 0.85682249 9.9862838e-05
-0.20523913 -0.026735952 -0.21653605 0.36800203 0.3565796 0.85873479 7.0685302e-05
-0.19740641 -0.027732223 -0.21951358 0.36870924 0.34949887 0.86133844 7.0864946e-05
0.23693554 -0.027601883 -0.21772416 -0.40109542 0.49670359 0.76968044 0
0.245417 -0.025856271 -0.21443139 -0.40106222 0.49671122 0.7696929 0
0.25414363 -0.023045866 -0.21169806 -0.40356454 0.48864469 0.77353871 0.00032725206
-0.23480302 -0.011072157 -0.21112859 0.38258761 0.23167124 0.89440209 0.011473474
-0.22636805 -0.015287997 -0.21275178 0.36780149 0.28523275 0.88507873 0.0069771558
-0.21714878 -0.013558142 -0.21736793 0.37255877 0.25650316 0.89185542 0.0090300171
-0.20994711 -0.01644318 -0.21907414 0.36650398 0.28752086 0.88487667 0.0048022969
0.24669544 -0.018200601 -0.21870567 -0.42847428 0.42426473 0.79775268 0.0053727948
0.25507197 -0.015246482 -0.21624748 -0.44632027 0.37048051 0.81458116 0.015575047
0.26309904 -0.014475135 -0.21256275 -0.41016132 0.38960421 0.82460672 0.009156581
-0.24111742 -0.0066621359 -0.21047583 0.3925572 0.18153708 0.90163362 0.012318278
-0.23640196 -0.0045972895 -0.21336609 0.37651193 0.11493389 0.9192546 0.015049463
-0.22588399 -0.0059882957 -0.2171237 0.35975596 0.16098222 0.91905409 0.015946774
-0.2187538 -0.0073990626 -0.21946125 0.36163607 0.19948269 0.91072828 0.011140541
0.26462844 -0.0040858733 -0.21847031 -0.43280029 0.1479737 0.88926244 0.037630979
0.2739304 -0.0034556077 -0.21403027 -0.43805128 0.13232388 0.88915771 0.035765298
0.28089637 -0.0032803272 -0.2105138 -0.45087531 0.13389786 0.88248676 0.032990027
-0.24221022 0.0023061845 -0.21212299 0.3908546 -0.01070694 0.92039019 0.017292017
-0.23548357 0.0045150369 -0.21407731 0.39526948 -0.075178988 0.91548353 0.016985217
-0.22415836 0.006375398 -0.21808098 0.38053736 -0.082352683 0.92109144 0.01494185
-0.21844591 0.0076934551 -0.21995471 0.37126476 -0.13809007 0.91820127 0.011761939
0.25799486 0.0087042628 -0.21899493 -0.44804153 -0.222983 0.8657583 0.029218275
0.26592883 0.0044145482 -0.21760526 -0.45018688 -0.12033128 0.88478929 0.033576969
0.27675763 0.0035382423 -0.21252358 -0.43631256 -0.10644236 0.89347708 0.035230152
0.28158846 0.0033645828 -0.21011759 -0.44759378 -0.10917627 0.88754731 0.033818442
-0.23480386 0.011015985 -0.2118654 0.38921037 -0.1842885 0.9025259 0.011302222
-0.22327706 0.013845162 -0.21558118 0.38103107 -0.20509078 0.90152818 0.0097143939
-0.2155932 0.013886646 -0.21876608 0.36650598 -0.24192505 0.89841282 0.0062411078
0.24754794 0.017719507 -0.2186708 -0.41245514 -0.44363937 0.7956537 0.0037220395
0.25566432 0.014446905 -0.21653543 -0.41791829 -0.40094963 0.81522012 0.013378599
0.26493832 0.012481083 -0.21296084 -0.43754211 -0.33299512 0.83526713 0.022085594
-0.22359134 0.022962116 -0.21195115 0.36451572 -0.31579942 0.87601316 0.001066003
-0.21665639 0.024888858 -0.21410054 0.36320975 -0.32378691 0.87363654 0.00027750517
-0.20715398 0.024075152 -0.2183712 0.36709362 -0.32361865 0.87207401 0.00032403457
0.23368955 0.028791493 -0.21879731 -0.40025923 -0.49528241 0.77103049 0
0.2437498 0.024949141 -0.2160247 -0.40110829 -0.49434605 0.77119011 7.6539063e-06
0.25453639 0.021877278 -0.21236959 -0.40573856 -0.47255802 0.78234595 0.0015336686
-0.21324229 0.032663461 -0.21253879 0.36391565 -0.33879438 0.86763114 5.034736e-05
-0.20529892 0.032804031 -0.21579377 0.36344412 -0.33603668 0.8689003 4.5449382e-05
-0.19688526 0.034952521 -0.21847402 0.3629196 -0.33545673 0.86934358 3.5074554e-05
0.2250471 0.036414206 -0.21835522 -0.39933208 -0.49620077 0.77092069 2.3336121e-05
0.23471078 0.036790945 -0.21311347 -0.39953795 -0.49599469 0.77094662 3.0844953e-05
0.2462379 0.032211203 -0.21008244 -0.40067434 -0.49474537 0.77115959 1.3069902e-05
-0.20392221 0.043458711 -0.21227796 0.36628479 -0.3462652 0.86367577 4.3998643e-05
-0.19424902 0.045939293 -0.21535544 0.36517292 -0.34188288 0.86588955 4.1335174e-05
-0.18713179 0.046826776 -0.2179796 0.36488965 -0.33963403 0.86689347 3.3173557e-05
0.21601327 0.045947876 -0.21688308 -0.39758748 -0.49681756 0.77142501 0
0.22557878 0.04520046 -0.21241671 -0.39887005 -0.496714 0.77082938 1.6161724e-05
-0.19457991 0.054693542 -0.21183272 0.3673445 -0.38338363 0.84739304 0.0012406943
-0.18416184 0.055823542 -0.21576381 0.36577246 -0.38175762 0.84880608 0.0016511515
-0.17759676 0.056704462 -0.21816047 0.36080196 -0.36870089 0.85666883 0.0011089098
0.19781381 0.057414897 -0.21890604 -0.35169017 -0.49995336 0.79142946 0.00099523447
0.20491391 0.05479788 -0.21692012 -0.38686827 -0.49860418 0.77571052 0.00011688346
0.2150768 0.053636275 -0.21241172 -0.39871356 -0.49685287 0.7708208 0
-0.19167015 0.060105693 -0.21083254 0.35439017 -0.42057738 0.83517802 0.0040597585
-0.18591456 0.065430105 -0.21096273 0.35178974 -0.47348297 0.80750096 0.0075623137
-0.17338029 0.063327871 -0.21734054 0.36063844 -0.40488279 0.84024388 0.0029356352
0.17934602 0.069609471 -0.21875462 -0.2591247 -0.49213701 0.83105689 0.001572612
0.18646449 0.065340891 -0.21929939 -0.29453734 -0.49912125 0.81493914 0.0015073903
0.1962954 0.065359615 -0.21457048 -0.34823358 -0.49807844 0.79413557 0.0012855892
0.20510094 0.061946258 -0.21221565 -0.39063805 -0.49760017 0.77446491 8.9809779e-05
-0.17508098 0.0751101 -0.21136265 0.32739589 -0.62798125 0.706011 0.018816134
-0.1639511 0.076015994 -0.21586561 0.345171 -0.60716224 0.71568912 0.018187659
-0.1564779 0.078417256 -0.21807742 0.31448451 -0.66380602 0.67857277 0.019776944
0.15548766 0.078275293 -0.21902244 -0.20661327 -0.48686185 0.84869111 0.0002909381
0.16569948 0.075999454 -0.21806657 -0.21043672 -0.49107352 0.84531838 0.00020823735
0.17490585 0.072903968 -0.21781741 -0.23426169 -0.4944931 0.83701736 0.00085454335
0.18539792 0.073770985 -0.21447507 -0.30015177 -0.49965367 0.81256086 0.0015973214
0.19266559 0.071764275 -0.21231978 -0.3399047 -0.50005782 0.79649669 0.0014578626
-0.16175525 0.081144117 -0.21243396 0.32336363 -0.70428771 0.6319927 0.01677146
-0.15687963 0.081645325 -0.21422142 0.30283609 -0.68763816 0.65988183 0.018950159
-0.14248842 0.085809298 -0.21366015 0.27176178 -0.77869552 0.56548977 0.013851553
-0.13373937 0.088284269 -0.2134418 0.23069981 -0.83755034 0.49526456 0.010160107
-0.1259062 0.08858709 -0.21713595 0.17497271 -0.85441923 0.48923647 0.009957362
-0.11577013 0.089556754 -0.21720886 0.13362753 -0.8727901 0.46944764 0.0094980905
-0.10244197 0.089958414 -0.21610571 0.073416404 -0.90868527 0.41097587 0.0085752495
-0.096543349 0.089653522 -0.21917427 0.082239851 -0.8881954 0.45204598 0.01464893
0.13404141 0.089245915 -0.21878752 -0.20461874 -0.57434636 0.79262692 0.017056217
0.14594351 0.087502189 -0.21641235 -0.21335931 -0.55998838 0.80055654 0.0099180508
0.15623736 0.083744667 -0.21570154 -0.20849644 -0.50567085 0.83715361 0.0015957853
0.16589309 0.084739357 -0.21289338 -0.21962307 -0.54088581 0.81191635 0.0054234597
0.17366916 0.082988076 -0.21217626 -0.24510254 -0.52498043 0.81505841 0.0026714257
0.1817905 0.083065279 -0.21030846 -0.28460062 -0.52857327 0.7997579 0.0029877601
-0.12323055 0.091043077 -0.21364474 0.1497035 -0.87172759 0.46656168 0.0082913497
-0.11540395 0.090616226 -0.21467173 0.11035091 -0.88914704 0.44411746 0.0066733155
-0.10671205 0.091605447 -0.2122134 0.054929007 -0.92114729 0.38531864 0.0029388149
-0.0952999 0.090774678 -0.21557243 0.074569695 -0.91065365 0.40638566 0.0098068267
-0.085438833 0.092191532 -0.21459052 0.088070311 -0.93782377 0.33575326 0.0056196908
-0.075715661 0.093236841 -0.21514146 0.099006176 -0.94583809 0.30917329 0.0043229451
-0.064577527 0.094724938 -0.21464531 0.10470125 -0.94663459 0.30482891 0.0043982123
-0.052586742 0.096214801 -0.21454617 0.12244222 -0.94916266 0.28999677 0.002731655
-0.042934064 0.097172 -0.21540545 0.11773954 -0.94540256 0.30389354 0.0036593569
-0.035185341 0.098377995 -0.21439812 0.11838154 -0.94871837 0.29312006 0.0028609429
-0.023347076 0.099014863 -0.21753478 0.11717676 -0.93116033 0.34526801 0.0063945213
0.11762169 0.098989412 -0.21823084 -0.14906757 -0.76627058 0.62498653 0.031487819
0.12591426 0.09589906 -0.21755572 -0.16922349 -0.69210839 0.70167613 0.03093156
0.13573751 0.096103564 -0.21473673 -0.20026116 -0.67288595 0.71212357 0.023324395
0.14429726 0.093049608 -0.21396883 -0.19187513 -0.62500459 0.75667244 0.020380396
0.15052603 0.094343781 -0.211573 -0.19009461 -0.63906419 0.74529248 0.018959628
0.16089116 0.090604708 -0.21066456 -0.21185695 -0.62103593 0.75460654 0.017604662
-0.015429554 0.10118803 -0.21285658 0.11707551 -0.95903867 0.25794995 9.2653434e-05
-0.0037045169 0.10224313 -0.21431768 0.12382133 -0.95076054 0.28411737 0.0017293836
0.0062649399 0.10296732 -0.21623062 0.11212166 -0.95460355 0.27597219 0.0018777292
0.016146952 0.10447966 -0.21504554 0.072305866 -0.96456629 0.25373951 0.0026623476
0.024737032 0.10500113 -0.21688546 0.03134983 -0.96817046 0.24832079 0.0033697116
0.034613211 0.10499764 -0.21488035 -0.016974973 -0.97585833 0.21774364 0.0018515594
0.045927327 0.10392646 -0.21579559 -0.079510637 -0.96429378 0.25261739 0.0057088393
0.053921994 0.10340922 -0.21539466 -0.09293323 -0.95403385 0.28492585 0.0094802594
0.067299038 0.10291834 -0.21598056 -0.060812607 -0.9417907 0.33065426 0.017693065
0.074041687 0.10313486 -0.21367036 -0.05398031 -0.9549616 0.29177791 0.014646417
0.085162863 0.10267247 -0.21593347 -0.08053188 -0.89878172 0.43093619 0.030498119
0.096256405 0.10257885 -0.21546656 -0.1018726 -0.88127583 0.46149206 0.032109477
0.10382447 0.10274331 -0.21345565 -0.13539784 -0.89726579 0.42021608 0.027341483
0.11370211 0.10200492 -0.2161487 -0.13782541 -0.85572845 0.49873132 0.029186917
0.12482719 0.10231237 -0.21293473 -0.16774015 -0.83511961 0.5238688 0.035220299
0.14255227 0.10134105 -0.21011907 -0.17448471 -0.76843977 0.61567491 0.03259366
-0.03282233 -0.11080796 -0.20311756 0.11127981 0.9364078 0.33280215 0.002345362
-0.025071818 -0.11201432 -0.20331125 0.10075661 0.9538601 0.28284109 0.0032008314
-0.015388496 -0.11216496 -0.20513082 0.082157508 0.95903093 0.27112672 0.0034463038
-0.0046492522 -0.11299755 -0.20343952 0.056004338 0.97455597 0.21703497 0.0021869047
0.0023737436 -0.11294591 -0.20484531 0.048744645 0.97056979 0.235835 0.0036158923
0.014241056 -0.1131795 -0.20501244 0.024115307 0.9792766 0.20108643 0.0042895628
0.027732786 -0.11306226 -0.20463148 -0.035641659 0.98277974 0.18131043 0.0037577986
0.035389762 -0.11277461 -0.2027225 -0.058816526 0.98571545 0.1578152 0.0023301025
0.045102064 -0.11181551 -0.20538752 -0.073204443 0.97501248 0.20974204 0.0071427082
0.052026156 -0.11137457 -0.20520894 -0.083553836 0.97359055 0.21246225 0.0072628334
0.065220729 -0.11060384 -0.20427382 -0.095219597 0.96705085 0.23610567 0.010568438
0.073830523 -0.11026535 -0.20225616 -0.084286593 0.96716654 0.23975952 0.010640131
-0.10274641 -0.10031803 -0.20048329 0.15219229 0.9031918 0.40135032 1.3437326e-05
-0.093904391 -0.10147862 -0.20118995 0.15065861 0.90350157 0.40123177 3.1871084e-06
-0.086678013 -0.10215194 -0.20238714 0.15031585 0.90384459 0.40058711 2.7503802e-06
-0.075274192 -0.103604 -0.20339938 0.15055956 0.90387625 0.40042436 7.5613266e-06
-0.065868258 -0.10384103 -0.20639737 0.15094104 0.89889371 0.41134778 0.00030532567
-0.051537577 -0.10698574 -0.20469709 0.13734114 0.915281 0.37867966 0.00071356556
-0.045153093 -0.10743648 -0.20607938 0.13155627 0.92113936 0.36632663 0.0013124028
-0.037935041 -0.10813798 -0.20721002 0.12974508 0.92161077 0.36578646 0.0021649378
-0.027679076 -0.10935962 -0.20831007 0.11566748 0.92465532 0.36281332 0.0044857492
0.07399188 -0.10967886 -0.20718415 -0.11521082 0.94736719 0.29870015 0.01498356
0.085254438 -0.10914344 -0.20533784 -0.074004494 0.94326043 0.32370213 0.015792377
0.094350755 -0.10861174 -0.20469613 -0.11856571 0.94125998 0.31618318 0.015629336
0.10674306 -0.10802406 -0.20265214 -0.085923336 0.94228303 0.32360455 0.020106949
0.11322901 -0.10728929 -0.20523882 -0.12700006 0.90590101 0.40399799 0.025106478
0.124416 -0.10676942 -0.20330243 -0.082663551 0.90972579 0.40689772 0.022390887
0.13443232 -0.10507603 -0.2058084 -0.12831163 0.81606585 0.56353587 0.026924884
0.14929135 -0.10408375 -0.20521572 -0.13564874 0.79057854 0.59714729 0.026768543
0.1539489 -0.10436531 -0.20291553 -0.13625933 0.83975214 0.52559471 0.027144542
0.16496351 -0.10352603 -0.20173304 -0.14317045 0.85662895 0.49567035 0.028778724
0.17131034 -0.10270558 -0.20112225 -0.1993731 0.81311095 0.54690135 0.025503259
-0.13358113 -0.092644811 -0.20319995 0.24020126 0.88380736 0.40148222 0.00042473766
-0.12559249 -0.09386307 -0.20574622 0.22156228 0.88732654 0.40442774 0.00054376555
-0.11394388 -0.096722849 -0.2043744 0.1705831 0.90008771 0.40092829 0.00020733998
-0.10462618 -0.097358428 -0.20644185 0.15874879 0.90201175 0.40146431 7.6525117e-05
-0.095643103 -0.098478027 -0.20729372 0.15064678 0.90349656 0.4012475 2.982659e-06
-0.085226893 -0.099481091 -0.20894617 0.14924911 0.89519233 0.41994682 0.00089818379
0.14511453 -0.097548984 -0.209995 -0.12349584 0.69686401 0.70649087 0.025723333
0.15593159 -0.095386147 -0.20885913 -0.16663317 0.68610293 0.70816392 0.0278944
0.16576605 -0.096629687 -0.20593536 -0.18663479 0.67527324 0.71356398 0.0216619
0.1751675 -0.094252057 -0.20522827 -0.24042669 0.62082422 0.74617171 0.015908772
0.18542455 -0.093488239 -0.20204575 -0.3199262 0.63848037 0.69999284 0.018247176
0.19038868 -0.092526644 -0.20007974 -0.3297013 0.62996417 0.70316583 0.015705645
-0.18082283 -0.08040195 -0.20137434 0.29041198 0.78871185 0.54184359 0.019055504
-0.17725874 -0.080818497 -0.20249881 0.28545722 0.78276765 0.55298185 0.020021861
-0.16412668 -0.083046012 -0.20466977 0.29486948 0.78837705 0.53991997 0.015905274
-0.15415248 -0.086300343 -0.20288876 0.27253664 0.84556681 0.4590649 0.0061919852
-0.14447522 -0.088227056 -0.20530255 0.27638072 0.85520393 0.43845177 0.0028899296
0.17543772 -0.087930977 -0.20887823 -0.25391787 0.52440482 0.81272709 0.0020073869
0.18507595 -0.08624579 -0.20677747 -0.30967957 0.54170179 0.78144592 0.0048864461
0.19591376 -0.084539756 -0.20235504 -0.36288384 0.53517359 0.76282668 0.0036808902
0.20237903 -0.081979387 -0.20063861 -0.38747442 0.51040268 0.7676931 0.0010494977
-0.20057857 -0.072760418 -0.20090298 0.33817041 0.63129473 0.69793099 0.025331222
-0.19388618 -0.074051864 -0.20324431 0.31956923 0.62029099 0.71632022 0.02207114
-0.18569748 -0.076020777 -0.20562181 0.31606501 0.64416921 0.69652623 0.023294643
-0.17725855 -0.077264994 -0.20933242 0.33794296 0.65231121 0.67844284 0.022665255
0.19799596 -0.075864926 -0.2068682 -0.37714297 0.49861452 0.78047848 0.00040743413
0.20493011 -0.074885085 -0.20388749 -0.39893484 0.49615657 0.77115476 0
0.21336204 -0.071109034 -0.20193087 -0.40082508 0.49638879 0.77002436 0
-0.21066283 -0.063409954 -0.20009035 0.35266474 0.45580569 0.81723237 0.011344642
-0.20474862 -0.064004749 -0.20243771 0.34884539 0.46533546 0.81349236 0.011640446
-0.19333419 -0.063637532 -0.20754781 0.36512741 0.43913385 0.8208797 0.0095737539
0.20624134 -0.069011182 -0.20699486 -0.39644226 0.49572191 0.77271813 4.5642857e-05
0.21530738 -0.064812146 -0.20498076 -0.40093505 0.49640903 0.76995409 0
0.22535932 -0.062350966 -0.2013315 -0.40086979 0.49625707 0.77008581 0
-0.21365783 -0.054236028 -0.20229669 0.37890771 0.34333441 0.8593896 0.00026636754
-0.20476569 -0.05554536 -0.20566714 0.37066996 0.35247189 0.85928303 0.0013021737
-0.1966923 -0.055812925 -0.20907974 0.37025955 0.37740999 0.84880483 0.0037707002
0.21603554 -0.058387216 -0.20874752 -0.40106919 0.49667382 0.76971334 2.9544986e-05
0.22606646 -0.05545694 -0.20541194 -0.40097463 0.4965874 0.76981831 0
0.2324056 -0.053590856 -0.20331317 -0.4010511 0.49656934 0.76979017 0
0.24100693 -0.051219333 -0.20036186 -0.40089998 0.49640724 0.7699734 7.7125305e-06
-0.22371529 -0.043326769 -0.20209216 0.37211961 0.34031427 0.86354679 7.0208866e-05
-0.21369612 -0.044407316 -0.20604084 0.37383285 0.33542338 0.86471969 2.9570318e-05
-0.20692213 -0.046000022 -0.20838068 0.37555581 0.3328459 0.86496896 0
0.22880456 -0.047309734 -0.20924285 -0.40101966 0.49671134 0.76971489 8.1927155e-06
0.2337921 -0.046706486 -0.20703337 -0.40095076 0.49669179 0.76976347 1.4046885e-05
0.24410026 -0.044723708 -0.20294188 -0.40096834 0.49667144 0.76976746 8.0065211e-06
0.2522462 -0.041926991 -0.20050225 -0.40100062 0.49653012 0.76984179 0
-0.23504166 -0.033236478 -0.20117128 0.36527392 0.35941213 0.85871875 0.00011572908
-0.22464584 -0.034287218 -0.20515198 0.36780423 0.35290304 0.86033678 8.0690159e-05
-0.21559326 -0.037385259 -0.20790178 0.37056622 0.343703 0.86287254 6.1493483e-05
0.2456812 -0.037278835 -0.2069225 -0.40099365 0.49671513 0.76972604 1.5698432e-05
0.25536719 -0.033654727 -0.20421435 -0.40107608 0.496674 0.76970965 0
0.26186019 -0.030238964 -0.20303547 -0.40108922 0.49665752 0.7697134 0
-0.24349517 -0.024557469 -0.20146053 0.35897079 0.36698827 0.85817218 0.00014870497
-0.23574787 -0.026919594 -0.2036285 0.36170828 0.36730868 0.85688478 5.1312629e-05
-0.22616583 -0.026310528 -0.20789318 0.36267108 0.36601603 0.85703093 9.3304108e-05
-0.21900783 -0.029501079 -0.2094442 0.36665946 0.3544274 0.86019886 0.00012338319
0.25596857 -0.026441816 -0.2085557 -0.40101928 0.49672431 0.76970679 1.0895175e-05
0.26525214 -0.02615937 -0.20390077 -0.40103093 0.49669287 0.76972097 0
0.27341479 -0.02388189 -0.2011174 -0.40243593 0.479316 0.77993685 0.0010711575
-0.2517823 -0.013381687 -0.20301996 0.37163079 0.25500798 0.89267105 0.0089108814
-0.24647857 -0.015690522 -0.20419393 0.35892525 0.33551461 0.870978 0.0024053934
-0.23649715 -0.017086854 -0.20772569 0.37096879 0.3134414 0.87414914 0.0044191536
0.26515603 -0.019478979 -0.20826186 -0.41187924 0.46244764 0.78517365 0.0017229586
0.27354029 -0.014060871 -0.20738973 -0.41805747 0.36383787 0.83237606 0.014198162
0.28463349 -0.01195053 -0.2029715 -0.43003374 0.3305513 0.84012312 0.022546599
0.2917667 -0.010002264 -0.20051202 -0.42154491 0.28815973 0.85980457 0.028759349
-0.26375917 -0.0042209961 -0.20213877 0.40185854 0.10046335 0.91017407 0.014873863
-0.253739 -0.0044364873 -0.20621617 0.39124769 0.14663149 0.90852875 0.012498047
-0.24701439 -0.0056967442 -0.20845227 0.37933266 0.17519967 0.90852171 0.012256545
0.28457326 -0.0065031364 -0.20651819 -0.43127108 0.15658866 0.88852984 0.036546618
0.29490143 -0.0042587626 -0.2025851 -0.43131599 0.13875321 0.89146733 0.041358255
0.30318183 -0.0014972896 -0.20005268 -0.46297649 0.084540486 0.88232964 0.039136983
-0.27001351 0.0035052127 -0.20008096 0.38300338 0.0048449575 0.92373425 0.017318493
-0.26517519 0.0030524512 -0.20227018 0.40550682 0.0059806332 0.91407245 0.0166848
-0.2563611 0.0023694281 -0.20620398 0.3926765 -0.016937625 0.91952068 0.015443003
-0.2437669 0.0089994343 -0.20890565 0.37045327 -0.16346268 0.9143545 0.012850349
0.28594288 0.0063147144 -0.20596141 -0.46926668 -0.24843661 0.84738898 0.026052879
0.29736301 0.0036458031 -0.2017184 -0.46200824 -0.15802023 0.87268436 0.03884194
0.3024241 0.0021122287 -0.20006245 -0.46082345 -0.13780916 0.8767271 0.038216878
-0.2611658 0.012836569 -0.20018522 0.3795653 -0.21104613 0.90077174 0.0092583969
-0.25467902 0.01416305 -0.20237826 0.36594313 -0.22967391 0.90185118 0.0058215368
-0.24546787 0.014339747 -0.20614748 0.36840153 -0.22655664 0.90163869 0.00752017
-0.23759823 0.016666517 -0.20853266 0.37945712 -0.25696617 0.88880861 0.0044536754
0.26790968 0.018881997 -0.2073177 -0.41172701 -0.46017212 0.78658909 0.0019942955
0.27402851 0.016433142 -0.20569614 -0.42439085 -0.4420884 0.79022169 0.0034110274
0.28483075 0.012783699 -0.2024024 -0.4248057 -0.31500828 0.84871072 0.023195254
-0.24347033 0.023919009 -0.20330304 0.3633948 -0.34018505 0.86730516 6.7556372e-05
-0.23405987 0.024100369 -0.20715348 0.36754876 -0.32369554 0.87185383 0.00073736452
-0.22815461 0.026213823 -0.20880225 0.3624945 -0.33658123 0.86908627 5.3550863e-05
0.25422087 0.027731329 -0.20878892 -0.4013876 -0.49397883 0.77128005 7.5006142e-06
0.26432219 0.023918312 -0.205965 -0.40166035 -0.49366647 0.77133811 2.9548657e-05
0.27747229 0.021294558 -0.20079172 -0.41137621 -0.46016955 0.7867741 0.0027762195
-0.24023411 0.030525101 -0.20211568 0.36397314 -0.345557 0.86493582 0.00010083643
-0.23704702 0.036194697 -0.20126733 0.36739764 -0.34899965 0.86210102 8.4502761e-05
-0.22383568 0.035668448 -0.20697269 0.36423445 -0.34350133 0.86564434 4.3187898e-05
-0.21593787 0.038857955 -0.20903845 0.36391702 -0.34461194 0.86533636 0.00010318826
0.23926884 0.038071379 -0.20993027 -0.39979053 -0.49565125 0.77103657 1.0053463e-05
0.24487741 0.039591033 -0.20604949 -0.39997727 -0.49551696 0.77102607 0
0.25413322 0.034766503 -0.20433383 -0.40095183 -0.49447867 0.77118647 2.7315505e-06
0.26363924 0.032341883 -0.20093194 -0.40139723 -0.49410331 0.77119523 0
-0.23325051 0.041472036 -0.20082337 0.3681387 -0.35749954 0.85829359 6.0404091e-05
-0.22340529 0.046161424 -0.20303316 0.3681618 -0.35909763 0.85761636 0.00012993636
-0.21485394 0.047758702 -0.20605136 0.36687005 -0.35732102 0.85891098 0.00016500102
-0.20597416 0.048022132 -0.20967178 0.36510643 -0.34896117 0.8630895 9.2067814e-05
0.23634785 0.044711139 -0.20716138 -0.3992717 -0.49629954 0.77088839 6.0387983e-06
0.24350575 0.046309531 -0.20242837 -0.39944094 -0.49604535 0.77096426 1.6403515e-05
-0.22263098 0.05183189 -0.20091116 0.36682567 -0.39324915 0.84308606 0.0013879765
-0.21460289 0.053427733 -0.20373255 0.36596212 -0.38633049 0.84665251 0.0011903102
-0.20512787 0.055431943 -0.206975 0.36449489 -0.37814438 0.85097015 0.00069322874
0.21677215 0.057401706 -0.20910758 -0.3987861 -0.49686202 0.7707774 0
0.22515392 0.055641294 -0.2059065 -0.39877036 -0.49686918 0.77078092 1.4027995e-05
0.23228773 0.054200895 -0.2031447 -0.3988294 -0.49675879 0.77082163 1.5883206e-05
-0.21397328 0.060494266 -0.20081125 0.3605561 -0.45548418 0.81396163 0.0058529028
-0.20412204 0.063941374 -0.20359932 0.36760584 -0.47284994 0.80079895 0.0062143705
-0.19398412 0.065186761 -0.20751074 0.36355898 -0.46640119 0.80640858 0.005870413
-0.18601632 0.067722082 -0.20988019 0.34635252 -0.47990912 0.8060565 0.0078330999
0.20703165 0.06551262 -0.20891808 -0.39121491 -0.49763644 0.77415055 0.00011363943
0.21580648 0.064692646 -0.20490748 -0.39871532 -0.49685028 0.77082157 1.6576575e-06
0.22768189 0.061397769 -0.20088826 -0.3988556 -0.49688134 0.77072901 0
-0.19356041 0.077522472 -0.20120937 0.31653565 -0.67683178 0.66460806 0.017657306
-0.18408585 0.075569354 -0.20677929 0.34517053 -0.63456905 0.69150513 0.017103059
-0.17892364 0.078178287 -0.20734011 0.31732124 -0.68123138 0.65972042 0.02013362
0.18865028 0.07921721 -0.20959282 -0.3297216 -0.50551927 0.79732925 0.0013529087
0.19501919 0.077117205 -0.20765188 -0.36532453 -0.49766222 0.78668308 0.00071848114
0.20428318 0.076353535 -0.20335193 -0.39657882 -0.49662837 0.77206576 1.1200861e-05
-0.17410541 0.08137574 -0.20464197 0.31839916 -0.71893448 0.61786348 0.01930229
-0.16403309 0.083999082 -0.20488191 0.28815278 -0.77849323 0.55759859 0.011584432
-0.15525521 0.086259924 -0.20514613 0.27003393 -0.8211711 0.50275213 0.010391411
-0.14553116 0.087608643 -0.20795205 0.24640638 -0.82428259 0.50974709 0.010134065
-0.13772871 0.089420378 -0.20861718 0.22966254 -0.86091977 0.4539519 0.0045625539
0.17578489 0.086855158 -0.20943177 -0.24954726 -0.53120315 0.80966008 0.0027979838
0.18361548 0.085747212 -0.20798814 -0.29234278 -0.53337538 0.79375452 0.0031553362
0.19501267 0.084355205 -0.20298974 -0.37157172 -0.50783175 0.77720094 0.00075654325
-0.14215045 0.091292538 -0.20193695 0.22908938 -0.87084943 0.43490145 0.0023945917
-0.13529442 0.091207474 -0.20616791 0.2146759 -0.87418723 0.43555823 0.0031739993
-0.12466567 0.094456419 -0.20487979 0.12836136 -0.90869701 0.39723185 0.0020918215
-0.11674139 0.094620012 -0.20511301 0.086424679 -0.91873443 0.38530231 0.0019321186
-0.10521083 0.094842874 -0.2044566 0.022204002 -0.93049985 0.36561882 0.00051842653
-0.095636539 0.094615415 -0.20489891 0.037579514 -0.94228894 0.33268511 0.0011600492
-0.086279899 0.095004693 -0.20418893 0.048479646 -0.94614094 0.3201049 0.0011717132
