# .PCD v0.7 - Point Cloud Data file format
VERSION 0.7
FIELDS x y z normal_x normal_y normal_z curvature
SIZE 4 4 4 4 4 4 4
TYPE F F F F F F F
COUNT 1 1 1 1 1 1 1
WIDTH 568
HEIGHT 1
VIEWPOINT 0 0 0 1 0 0 0
POINTS 568
DATA ascii
0.43559811 0.041700464 -0.064880475 -0.75682718 -0.36118481 0.5447551 0.0042441343
-0.40314475 0.051968385 -0.067297496 0.42073596 -0.85823506 0.29396251 0.02481948
-0.39409533 0.054241408 -0.065415911 0.3163729 -0.92328495 0.21783733 0.012452184
-0.38545921 0.056187421 -0.065091848 0.25982338 -0.95115018 0.1667486 0.0035228068
-0.37434572 0.058623936 -0.065121286 0.2124037 -0.96608341 0.14685903 1.5890076e-06
-0.36698338 0.059671294 -0.068877108 0.21372502 -0.9659915 0.14554042 0
-0.062126506 0.059493728 -0.060156055 0.09825398 0.70521408 0.70215327 0.015685085
-0.051141426 0.057352401 -0.060526341 0.10815258 0.68269175 0.72265834 0.017929783
-0.045089003 0.056725789 -0.061048757 0.11963878 0.67374587 0.72921407 0.020060701
-0.034248944 0.056193519 -0.062324032 0.097957127 0.67486471 0.73141086 0.017521413
-0.022178294 0.05573152 -0.063819297 0.10567964 0.66492438 0.73939663 0.014477126
-0.012686085 0.055500831 -0.065071501 0.076391309 0.703062 0.70701355 0.018531309
-0.0052290969 0.056651831 -0.066766061 0.021286195 0.71894985 0.69473594 0.022703886
0.0061295773 0.056615379 -0.066909835 -0.055823937 0.73483074 0.67594934 0.01990675
0.01383014 0.055997271 -0.065096654 -0.050659601 0.73665112 0.67437291 0.019887162
0.024073422 0.056356631 -0.063471302 -0.11582004 0.73099238 0.67248487 0.016409185
0.035347778 0.056834809 -0.061738081 -0.1005659 0.73664737 0.66875786 0.017427815
0.044803433 0.058185115 -0.060924582 0.099108644 -0.7854532 -0.61093426 0.019962134
0.42611474 0.055463791 -0.06751252 -0.64955121 -0.50422418 0.56907052 0.009518954
0.43229765 0.05340565 -0.062691763 -0.70226634 -0.48331261 0.52271509 0.010912397
-0.36490187 0.060416121 -0.066980757 0.21368407 -0.96600568 0.14550658 0
-0.35529506 0.062726401 -0.065660737 0.22238639 -0.96440673 0.14305246 7.7482029e-05
-0.34639573 0.064944059 -0.063926846 0.23219478 -0.96259403 0.13963637 0.00013790718
-0.33448291 0.067795299 -0.064446926 0.23143859 -0.96792227 0.097788744 0.0018881238
-0.32873565 0.06947495 -0.064497307 0.2331083 -0.96969306 0.073183864 0.0026572917
-0.1064336 0.069390558 -0.061746012 -0.13412122 -0.83156186 -0.5389958 0.018279169
-0.092856653 0.068689108 -0.064344786 -0.11648247 -0.80615598 -0.58012432 0.018688107
-0.085233711 0.067198321 -0.063068487 0.1335869 0.75914252 0.63706923 0.021909082
-0.075561702 0.066646263 -0.064318046 -0.14741765 -0.78336668 -0.60382503 0.017848521
-0.064202949 0.064725585 -0.064582758 -0.12892579 -0.77081209 -0.62388051 0.018241405
-0.054417662 0.064009257 -0.065059587 -0.10264899 -0.79798692 -0.59386873 0.016663903
-0.045273185 0.063650779 -0.066357948 -0.1082954 -0.82746869 -0.55096972 0.021081734
-0.035761818 0.063443452 -0.06802167 -0.098948248 -0.83414525 -0.54259652 0.02149054
-0.024239022 0.061029963 -0.066568345 -0.12810357 -0.78035158 -0.61207914 0.022313504
-0.0073768757 0.060717911 -0.068974227 -0.1073615 -0.80414563 -0.58465666 0.025198979
0.010908516 0.060303297 -0.069381975 0.051285129 -0.84249264 -0.53626114 0.02136573
0.022599231 0.060224704 -0.066941462 0.077847049 -0.80938864 -0.58209091 0.019036314
0.032045629 0.061369043 -0.069716766 0.062840775 -0.85443437 -0.51574504 0.021040175
0.044927686 0.060904346 -0.065541521 0.071722455 -0.82734692 -0.55709332 0.017952811
0.056011204 0.061079387 -0.064208619 0.09925013 -0.85221124 -0.51369768 0.014424366
0.063946351 0.061480802 -0.064339496 0.083231986 -0.86454564 -0.49561405 0.018505413
0.075369678 0.062303077 -0.065488502 0.099206164 -0.91230673 -0.39730912 0.011355724
0.084782675 0.063021287 -0.066595033 0.07494542 -0.92295384 -0.37754393 0.011594405
0.094399624 0.063131154 -0.065273404 0.060907107 -0.94060642 -0.33399087 0.0056243115
0.1072341 0.06373366 -0.065301321 0.066299565 -0.93758184 -0.34138626 0.0071816263
0.11535861 0.06394586 -0.06465397 0.067705289 -0.94074303 -0.33229282 0.0065883286
0.12556605 0.064215966 -0.063854463 0.06690909 -0.95105833 -0.30168048 0.0030952797
0.13429467 0.065036707 -0.065442622 0.066081166 -0.95122856 -0.3013263 0.0023822023
0.14462528 0.06566523 -0.065493062 0.062670663 -0.95779788 -0.28052753 0.00099984382
0.1559668 0.066455983 -0.065651022 0.078877091 -0.95928884 -0.27118874 0.00056902808
0.16608326 0.066774726 -0.064384967 0.098327175 -0.96279234 -0.25171947 0.00047467364
0.17392901 0.067913637 -0.066314578 0.11654745 -0.96131599 -0.24957594 0.00062728924
0.18536168 0.069736883 -0.066389479 0.14671725 -0.96059507 -0.23607473 0.00048298953
0.40927202 0.069176599 -0.067555174 -0.42003447 -0.78645188 0.45284033 0.017905414
0.41533306 0.068264946 -0.064633176 -0.48172209 -0.75416654 0.44629201 0.016471958
0.42582676 0.063770458 -0.062708549 -0.60739106 -0.62567109 0.48950145 0.014003892
-0.32319087 0.071269453 -0.063000262 0.19658557 -0.980313 0.018454788 0.0051473225
-0.31365362 0.073882274 -0.064633593 0.18943855 -0.98177022 -0.015503249 0.0054327841
-0.30526814 0.076253489 -0.06494426 0.18711428 -0.98125535 -0.046109423 0.006753366
-0.2947596 0.077375337 -0.064243503 0.1336541 -0.97831738 -0.1582139 0.0056316932
-0.28498867 0.078056559 -0.064293168 0.10141923 -0.97562069 -0.19462369 0.0049888231
-0.27430955 0.078566551 -0.065294653 0.074501477 -0.97018081 -0.23064856 0.0033427381
-0.26439968 0.078370735 -0.064008079 0.03650327 -0.96197081 -0.27070227 0.0008925146
-0.2555317 0.07860437 -0.064210929 0.02367554 -0.95896381 -0.28253821 0.00015058466
-0.24541755 0.078531943 -0.063319862 0.018615877 -0.95714712 -0.28900284 6.1063412e-07
-0.23235291 0.078881435 -0.063636176 0.018113598 -0.95716083 -0.28898937 0
-0.22335351 0.078871727 -0.063024618 0.0093477909 -0.95763141 -0.2878449 8.889653e-05
-0.21435994 0.079121657 -0.063273318 -0.010336807 -0.95877165 -0.28398967 0.00031940668
-0.20485762 0.079118371 -0.062938988 -0.025182687 -0.959952 -0.27903065 0.00033505182
-0.19497477 0.079583928 -0.06692671 -0.061001621 -0.95936954 -0.27547926 0.00034607414
-0.18718784 0.078357577 -0.065302208 -0.081947856 -0.95931816 -0.27017257 0.0001085179
-0.17471831 0.076569185 -0.063326426 -0.094887942 -0.95852625 -0.26874459 4.0199739e-06
-0.16459173 0.075986832 -0.064825058 -0.10241192 -0.95348102 -0.28352383 0.00041149958
-0.15582129 0.074982554 -0.064339891 -0.10458124 -0.95143521 -0.28954056 0.00079621631
-0.14739306 0.074978605 -0.06730184 -0.10032349 -0.95213598 -0.28874257 0.00062947732
-0.13448264 0.07300251 -0.064812273 -0.11391025 -0.91208172 -0.39386725 0.0099186879
-0.12457035 0.07195963 -0.06458395 -0.14977135 -0.89102906 -0.42852733 0.013343813
-0.1154689 0.071319744 -0.065431483 -0.16754627 -0.88156205 -0.44133493 0.014742761
-0.10504307 0.070969574 -0.067408182 -0.11656297 -0.87469429 -0.47044966 0.014999459
-0.098220669 0.070283726 -0.067725353 -0.12383661 -0.85653567 -0.50101012 0.018299034
0.18463397 0.070433609 -0.06998565 0.14418982 -0.96122009 -0.23508538 0.00042710488
0.19536059 0.07158 -0.065988541 0.17356968 -0.95790774 -0.22866219 0.00011671583
0.20347585 0.072994515 -0.065313704 0.18092386 -0.95694387 -0.22699137 1.7942946e-05
0.21593066 0.075442821 -0.065468915 0.18243578 -0.95618892 -0.22895434 2.4170344e-05
0.22464322 0.077287003 -0.066142082 0.1814968 -0.95584232 -0.23113726 2.7139587e-05
0.2355967 0.078845695 -0.06372641 0.18251625 -0.95487744 -0.23430079 3.6584712e-05
0.37702358 0.078645937 -0.069018736 -0.24710099 -0.92639524 0.28413567 0.00036746124
0.38550267 0.076923534 -0.066294067 -0.26939172 -0.91601604 0.29722482 0.0003224813
0.39639983 0.07403823 -0.064840585 -0.28889257 -0.90694845 0.30657086 0.00040700019
0.40376908 0.071748048 -0.064891256 -0.37007645 -0.84362274 0.3890295 0.010326071
0.41055718 0.070613742 -0.061964165 -0.39713389 -0.82712299 0.39768371 0.01202211
-0.26162663 0.080146693 -0.06971129 0.044475798 -0.97016978 -0.23831163 0.0021630591
-0.25902155 0.080001563 -0.069062956 0.03478042 -0.96626067 -0.255207 0.0011547016
-0.24015182 0.080269113 -0.068734102 0.018605491 -0.95714819 -0.28900036 1.6879277e-06
-0.23358661 0.080380008 -0.068678699 0.018046156 -0.9571225 -0.28912091 0
-0.22073244 0.080304347 -0.067600526 0.0052644871 -0.95764101 -0.28791669 0.00014967167
-0.20610829 0.08045093 -0.067449637 -0.027031798 -0.95983654 -0.27925441 0.00039789692
-0.19566081 0.080245584 -0.069044463 -0.06221908 -0.95982242 -0.27362341 0.00034830029
0.23956637 0.080480523 -0.06744425 0.18250304 -0.95534891 -0.23238145 3.7106282e-05
0.24604057 0.081464067 -0.066316232 0.1827222 -0.95552444 -0.23148595 6.729563e-05
0.25535905 0.082770415 -0.064362206 0.17835483 -0.95484358 -0.23762019 0.00010079247
0.26322767 0.084324606 -0.064626366 0.17047834 -0.95850658 -0.22847809 0.00059243437
0.27343702 0.086324811 -0.065107897 0.1550694 -0.96560866 -0.20869453 0.0022351334
0.28440124 0.088577077 -0.065974906 0.12290627 -0.97979623 -0.15777662 0.0063909707
0.29369307 0.089164317 -0.061813802 0.12383056 -0.981426 -0.14652276 0.0070326971
0.32762137 0.089118391 -0.066782095 -0.10912922 -0.98132962 0.1583765 0.0061543081
0.33698484 0.087728746 -0.06541907 -0.14467649 -0.96853244 0.20251812 0.0038696472
0.34571943 0.086504638 -0.06388092 -0.15442538 -0.96262586 0.22249553 0.0022706175
0.35473847 0.084035277 -0.066745237 -0.18783353 -0.94664013 0.26189873 0.0001089807
0.36524978 0.081733637 -0.067954786 -0.20688048 -0.94060808 0.2691783 0.00030819132
0.37448496 0.081265867 -0.063046589 -0.22369125 -0.93610132 0.27143434 0.00038403159
0.29444963 0.090703905 -0.0669761 0.055684838 -0.99773186 -0.037818991 0.011092655
0.30670914 0.092020437 -0.064113133 0.017099505 -0.99972516 -0.01603641 0.011245465
0.31331101 0.092020869 -0.065158166 -0.015095603 -0.99966818 0.020874988 0.0097342972
0.32088906 0.090032652 -0.068075649 -0.076650135 -0.98971361 0.12079594 0.0094096633
0.3081153 -0.091160081 -0.059180073 0.042001631 0.99538022 -0.086337715 0.012208445
0.3125183 -0.090829767 -0.054905146 0.070434324 0.9928965 -0.095893376 0.011618369
0.32391912 -0.092025861 -0.054047473 0.013433074 0.99986428 -0.0095390473 0.014501878
0.33631119 -0.090794362 -0.052622586 -0.095716484 0.98943847 0.10885701 0.015561693
0.24823202 -0.080284089 -0.059793599 0.17902072 0.95312726 -0.2439263 5.6209126e-05
0.25796607 -0.081247322 -0.056819584 0.17706455 0.95193559 -0.24993342 4.143421e-05
0.26499036 -0.082147889 -0.055424582 0.17501599 0.95149517 -0.25303432 2.4508765e-05
0.27557021 -0.083900318 -0.054771129 0.17529124 0.95176482 -0.25182682 4.3454496e-05
0.28229436 -0.084259957 -0.051597171 0.17592454 0.95080638 -0.2549859 1.3913324e-05
0.29562211 -0.087227307 -0.053320222 0.14963731 0.96719736 -0.20527557 0.003947468
0.30575052 -0.089220092 -0.053654473 0.096575461 0.98130834 -0.16645464 0.0089814747
0.33572617 -0.089283101 -0.057282116 -0.1149904 0.97655147 0.18200123 0.0125996
0.34415615 -0.088277251 -0.054264531 -0.13672256 0.96826506 0.20921211 0.0092029572
0.35611609 -0.084731534 -0.05594667 -0.20582095 0.9387762 0.27629152 0.0018078501
0.36452982 -0.082841106 -0.055430114 -0.21885949 0.92832059 0.30053523 0.000471985
0.37263465 -0.081772827 -0.052813858 -0.22449118 0.92354804 0.31090629 0.00011966267
-0.32363477 -0.072131068 -0.05328545 0.12137656 0.99201161 -0.034362338 0.0095885051
-0.31524661 -0.07386025 -0.053634208 0.12461152 0.98773044 -0.094130695 0.0087928306
-0.30522287 -0.074946754 -0.055296656 0.1258606 0.97802711 -0.16619879 0.0066515775
-0.29495037 -0.076003909 -0.058136456 0.088229708 0.97661418 -0.19606183 0.0044429381
-0.28551966 -0.07510896 -0.05456527 0.039068568 0.97032744 -0.23861763 0.0020370258
-0.2758677 -0.075078927 -0.053844381 0.029321834 0.96402258 -0.26419839 0.00079862535
-0.26595876 -0.075313784 -0.053984255 0.019275531 0.95812035 -0.28571635 1.1737963e-05
-0.25397778 -0.075460054 -0.053697269 0.01828043 0.95741653 -0.28813088 2.9964308e-06
-0.24462999 -0.076188095 -0.055506591 0.01855785 0.95725232 -0.28865826 0
-0.23653528 -0.076355085 -0.055538498 0.018570919 0.95721108 -0.2887941 5.5076107e-06
-0.2270671 -0.076365083 -0.054962017 0.018095581 0.95735914 -0.28833327 2.3788398e-06
-0.21501106 -0.076217607 -0.053697344 0.0001832516 0.95847702 -0.2851699 0.00019306103
-0.20704219 -0.077222466 -0.056512266 -0.022418626 0.96022063 -0.2783412 0.00034101008
-0.19521278 -0.076357655 -0.055335332 -0.054357175 0.95949823 -0.27642077 0.00038476349
-0.18646173 -0.075250462 -0.05447622 -0.087547645 0.95547956 -0.28177005 0.00051331572
-0.17568742 -0.075223207 -0.058183432 -0.10313834 0.95400465 -0.28149167 0.0004050844
-0.16458388 -0.072834663 -0.053584781 -0.114255 0.93620497 -0.33236447 0.0061828876
-0.1538765 -0.07216613 -0.054981083 -0.14350095 0.91506851 -0.37690458 0.01273366
-0.14509061 -0.071513772 -0.05575658 -0.17008138 0.89071792 -0.42153752 0.017354228
-0.13363855 -0.070706062 -0.056919441 -0.17336732 0.84491795 -0.50602114 0.01917295
-0.11992337 -0.070149057 -0.059775572 -0.13714841 0.84931237 -0.50976354 0.019782767
0.19593087 -0.070142835 -0.059344549 0.17979415 0.95581657 -0.23257002 5.3968324e-05
0.20559426 -0.071167685 -0.055709641 0.18136932 0.9548676 -0.23522985 4.8482401e-05
0.21493536 -0.072653741 -0.054404993 0.17996202 0.95446461 -0.23793061 4.8648486e-05
0.22460833 -0.075048201 -0.056736577 0.18120198 0.95435393 -0.23743278 4.8695907e-05
0.23676103 -0.076682873 -0.054288607 0.17767124 0.95231944 -0.24803321 3.7252783e-05
0.2441009 -0.077764094 -0.053338058 0.17787234 0.95202017 -0.24903597 4.3928452e-05
0.25163954 -0.078974575 -0.052732795 0.17686225 0.95158899 -0.25139219 3.6453566e-05
0.37800571 -0.07851807 -0.058248386 -0.22209384 0.92883515 0.29654631 0.00024975382
0.38702077 -0.07887505 -0.050988991 -0.22585683 0.92369998 0.30946273 0.00016254732
0.3943789 -0.075046293 -0.056660514 -0.22971229 0.92601758 0.29953906 0.00031736618
0.40840873 -0.071642026 -0.056508403 -0.33035088 0.88313794 0.33307007 0.0065053711
0.41536719 -0.070760265 -0.054162525 -0.38499996 0.86311686 0.32680926 0.010904379
0.42067066 -0.070236608 -0.051956914 -0.47565296 0.82381624 0.3083522 0.013688542
-0.37314916 -0.060736611 -0.052925929 0.21331143 0.96489263 0.15323302 3.013505e-05
-0.36554137 -0.061998963 -0.055619787 0.21331468 0.9656046 0.14867613 6.868599e-06
-0.35396799 -0.064672507 -0.054752484 0.21697645 0.96514553 0.14633965 0.00014200396
-0.34469569 -0.066700973 -0.054805979 0.21306811 0.96956092 0.12063785 0.00099208625
-0.33515072 -0.068609402 -0.056651775 0.18426909 0.98021793 0.072233438 0.0049937763
-0.13170432 -0.069154717 -0.052069124 0.22628012 -0.77288836 0.59282452 0.022473635
-0.12424739 -0.06807553 -0.054005705 -0.14617434 0.76858801 -0.62282056 0.020750729
-0.11507619 -0.067117572 -0.055767927 0.18147548 -0.72106522 0.668679 0.019802829
-0.10593124 -0.065915078 -0.057257101 0.18689777 -0.75018942 0.63425934 0.021064961
-0.095222764 -0.065068252 -0.058611378 0.18303964 -0.74116951 0.64588249 0.019224087
-0.087430589 -0.063331261 -0.058672849 0.16100767 -0.71713328 0.67808288 0.015612473
-0.06862776 -0.060194727 -0.059610959 0.12689075 -0.71174562 0.69088119 0.018151095
0.071801588 -0.060538359 -0.059008345 0.10783046 0.82984644 -0.54747373 0.016791536
0.0854389 -0.060612731 -0.056784917 0.10265813 0.80353355 -0.58634049 0.014840508
0.094116606 -0.061132491 -0.057041418 0.096275799 0.83739167 -0.53805786 0.017844941
0.10631981 -0.061251547 -0.055237543 0.1004184 0.85096359 -0.51553571 0.016376128
0.11313043 -0.062207926 -0.057379056 0.08760272 0.88198096 -0.46307176 0.015156203
0.1235109 -0.062369581 -0.056058217 0.084831424 0.87948203 -0.46831074 0.015529727
0.1360116 -0.063118964 -0.056429956 0.088506922 0.88798994 -0.45126522 0.013829493
0.14424308 -0.06346117 -0.056139715 0.071870312 0.90965992 -0.40908867 0.015012803
0.15367337 -0.063688062 -0.055222925 0.089263692 0.91319859 -0.39761835 0.015367913
0.16350642 -0.063558847 -0.052972894 0.086893313 0.91786492 -0.3872641 0.013383943
0.17564529 -0.065144129 -0.054680958 0.150537 0.93750197 -0.31373349 0.0077372775
0.18404588 -0.066862702 -0.05514444 0.18188991 0.94374937 -0.2761398 0.0027395166
0.1951713 -0.068440296 -0.052666936 0.18403246 0.95205301 -0.24439147 0.00032415014
0.200324 -0.069317892 -0.052150317 0.182319 0.95194447 -0.24609262 0.00025922686
0.41746107 -0.069106527 -0.057428259 -0.39870352 0.85002398 0.34423062 0.01014913
0.42592001 -0.067720704 -0.055194959 -0.5627147 0.75912327 0.32723698 0.01695074
0.43259647 -0.064285122 -0.05386572 -0.67473054 0.64934886 0.35083452 0.019154597
-0.41507074 -0.051240068 -0.05452406 0.51006681 0.79377389 0.33129284 0.025330709
-0.40574679 -0.052936822 -0.057145204 0.37090856 0.89176887 0.25918168 0.018281771
-0.39509353 -0.055696171 -0.054379947 0.25124282 0.95206612 0.17449085 0.0028922474
-0.38447121 -0.058021709 -0.054429814 0.21431375 0.9650408 0.15088362 2.5626337e-05
-0.3764511 -0.0596123 -0.055556763 0.21282162 0.9656617 0.14901155 1.0276663e-05
-0.11082634 -0.059501451 -0.051819421 0.2033031 -0.63677573 0.74376369 0.014250289
-0.10407457 -0.056178842 -0.051915806 0.17693202 -0.59048742 0.78741324 0.0089964401
-0.094512798 -0.05341972 -0.051934548 0.13676521 -0.55703145 0.81915277 0.0049095461
-0.085194059 -0.054191455 -0.053738415 0.14611141 -0.6005131 0.7861523 0.0098975487
-0.074344568 -0.053880829 -0.055142645 0.13626131 -0.62374467 0.76965928 0.012356088
-0.06411057 -0.053312592 -0.056308787 0.11413772 -0.61807507 0.777789 0.010723505
-0.055055428 -0.053562518 -0.057773843 0.10588579 -0.63367772 0.76631635 0.010878575
-0.048372332 -0.052509222 -0.058142696 0.12391294 -0.60220075 0.78866971 0.0081201652
-0.038512632 -0.053052388 -0.059893936 0.11408744 -0.64571947 0.75500357 0.014195987
0.029301779 -0.051785097 -0.059435204 -0.12727278 -0.65566748 0.74424583 0.005957182
0.034136605 -0.051986884 -0.058689732 -0.13232017 -0.66508478 0.73495156 0.0068347128
0.045850519 -0.053238928 -0.057398222 -0.12957928 -0.69331461 0.70888919 0.0099678561
0.056120757 -0.054117024 -0.056117762 -0.11833257 -0.7056635 0.69859612 0.011385053
0.064016663 -0.054531172 -0.054957356 -0.1562549 -0.70229179 0.69452906 0.011239335
0.075325355 -0.054308247 -0.052745085 -0.13197884 -0.71336877 0.68824899 0.014416763
0.084077217 -0.056071941 -0.052338686 -0.099491522 -0.73795033 0.66748083 0.015917491
0.092472315 -0.057350725 -0.051670332 0.091093034 0.77529252 -0.62499881 0.017361868
0.43654263 -0.053921446 -0.055614818 -0.76809102 0.49555501 0.40553838 0.014255504
-0.42262158 -0.043170597 -0.055410419 0.63245654 0.6553635 0.41291332 0.017078198
-0.41830814 -0.047778659 -0.05707163 0.55159765 0.73939753 0.38604578 0.021189818
-0.093157783 -0.049875326 -0.05009215 0.15367527 -0.514992 0.84330732 0.0013281867
-0.08642257 -0.04964786 -0.050943933 0.13206916 -0.51786268 0.84520757 0.00092280499
-0.076142699 -0.046668749 -0.050729107 0.12589799 -0.50886846 0.85158825 0.00046031838
-0.064581484 -0.046034053 -0.052050635 0.12571439 -0.51157618 0.84999162 0.0003257381
-0.05628752 -0.045894198 -0.053180289 0.1219858 -0.53036422 0.83894777 0.0021889671
-0.04410496 -0.045793395 -0.054899793 0.11276799 -0.54655355 0.82979667 0.0041541252
-0.035188515 -0.044968776 -0.055726118 0.115435 -0.55459034 0.8240779 0.0038279959
-0.027662957 -0.044279087 -0.056411911 0.11694547 -0.54164493 0.83243281 0.00216428
-0.015574838 -0.043020416 -0.057062387 0.071567565 -0.54968953 0.83229768 0.0022127707
-0.0062993416 -0.04323395 -0.058258343 0.018353034 -0.56611949 0.82411885 0.0036293897
0.006403015 -0.043398652 -0.057955027 -0.076870255 -0.58519018 0.80724424 0.0048845778
0.014448278 -0.045777902 -0.058092549 -0.09327776 -0.59980112 0.79469359 0.005586612
0.025476128 -0.04508571 -0.055615034 -0.14110716 -0.6019761 0.78594756 0.0034689112
0.03561784 -0.045418043 -0.053989977 -0.1458353 -0.6191631 0.77160168 0.0048781671
0.044275261 -0.04434726 -0.051689364 -0.14956084 -0.58026916 0.80057436 0.0011711911
0.055124853 -0.04832055 -0.052390516 -0.1411062 -0.63764828 0.7572937 0.0071447464
0.063131385 -0.047049198 -0.050073333 -0.1485054 -0.59859955 0.78716242 0.002305524
0.4383463 -0.046588451 -0.057216529 -0.79056996 0.40649742 0.45799458 0.0073442808
0.44322944 -0.040986225 -0.051763669 -0.83212662 0.37044612 0.41271657 0.0061034262
-0.43219516 -0.031774133 -0.052886471 0.70792401 0.52439678 0.47312948 0.0021511696
-0.42710945 -0.03565282 -0.056391522 0.68993729 0.54305339 0.47862253 0.0033328785
-0.043820154 -0.039068639 -0.05107066 0.11267691 -0.51332992 0.85076213 0.00013748521
-0.03714304 -0.037006512 -0.05078442 0.1095513 -0.51580012 0.84967571 8.337092e-05
-0.023890123 -0.03750927 -0.052624192 0.10148553 -0.52112281 0.84742653 0.00018811547
-0.014812496 -0.035742041 -0.052544191 0.05334482 -0.53427351 0.8436268 0.0011208196
-0.004975134 -0.03387339 -0.052473724 -0.01031933 -0.5439328 0.83906531 0.0014827617
0.0037299544 -0.03342133 -0.05171423 -0.05919449 -0.54658264 0.8353104 0.0015498141
0.012281004 -0.036491171 -0.052225232 -0.099490538 -0.55279446 0.82735723 0.0010322264
0.022123186 -0.03751941 -0.051124074 -0.13871348 -0.5567466 0.81901872 0.00031210971
0.43997386 -0.039933838 -0.058702532 -0.80203289 0.35075858 0.4834373 0.0047514825
0.44493088 -0.034902364 -0.052823603 -0.82343888 0.34166765 0.45300278 0.0031052192
-0.43338314 -0.028051149 -0.054870307 0.71552604 0.51031917 0.47707105 0.00071391958
0.44623947 -0.025929805 -0.056429163 -0.82836539 0.32714584 0.45473763 0.0018144134
0.45064706 -0.021355595 -0.05126946 -0.85365492 0.29691237 0.42792097 0.0011650471
-0.4428153 -0.015090619 -0.054107267 0.81151235 0.39139545 0.43388626 0.019920312
-0.43797824 -0.018973971 -0.057247676 0.74627125 0.4871591 0.45360243 0.0050386321
0.45200139 -0.015268749 -0.052842531 -0.86644715 0.24739927 0.43366215 0.0037048683
-0.4514423 -0.0018383798 -0.055621002 0.92344236 0.10332724 0.36956418 0.042231206
-0.44764996 -0.0061992714 -0.056412738 0.87326384 0.28026083 0.39857772 0.03779709
0.45432648 -0.0058263587 -0.054863356 -0.88938296 0.11060464 0.44358167 0.010345357
-0.45155153 0.0026872728 -0.054601736 0.9066028 -0.14140844 0.39758644 0.040872529
-0.44655901 0.0076543908 -0.056084815 0.87000549 -0.23771647 0.43195069 0.045541227
0.45519865 0.0034254044 -0.054851692 -0.89630187 -0.073668383 0.43728244 0.012956908
-0.44392574 0.013980134 -0.053604204 0.82077223 -0.39106292 0.41641653 0.01991535
0.44867432 0.018178202 -0.057103865 -0.84946734 -0.2780129 0.44845748 0.0022427842
0.4519673 0.012728362 -0.054620314 -0.86958009 -0.22320966 0.4404633 0.0063370764
-0.43575066 0.025287401 -0.054191917 0.7268827 -0.5075531 0.46263519 0.0010765583
-0.4299126 0.028791703 -0.059158877 0.71284795 -0.51178956 0.47949889 0.00063526625
0.44731823 0.023787541 -0.055856328 -0.83812541 -0.31959391 0.44204688 0.0012887331
-0.43128505 0.033272814 -0.052713245 0.70405102 -0.52737427 0.47559282 0.0026740644
-0.42769769 0.035502236 -0.055689614 0.70341229 -0.52837229 0.47543025 0.0027007649
-0.035697505 0.03808748 -0.051609196 0.10996891 0.51366568 0.85091388 7.7478384e-05
-0.024972545 0.037864454 -0.052725136 0.10071854 0.52052951 0.84788251 0.0001835735
-0.013332482 0.035607561 -0.052628372 0.049571808 0.5351721 0.84328729 0.0008914448
-0.0051944591 0.035799488 -0.053647123 0.013096488 0.54099989 0.84092069 0.0015844287
0.0038657687 0.033719234 -0.051890355 -0.058901988 0.55049485 0.83275807 0.0018021007
0.011045997 0.035353724 -0.051683381 -0.1080119 0.55426055 0.82530522 0.000889858
0.026735917 0.038572915 -0.05099345 -0.14858928 0.56302738 0.8129707 0.00060060824
0.035369374 0.039516002 -0.050055258 -0.14835379 0.56693441 0.81029415 0.00080203771
0.4434571 0.033633213 -0.05643703 -0.82095253 -0.33383733 0.46323806 0.002449342
-0.42295283 0.043529518 -0.05457367 0.61818045 -0.66041738 0.426265 0.016939914
-0.41941777 0.048456561 -0.054790404 0.58668572 -0.69207531 0.42051357 0.019390507
-0.086209804 0.049856666 -0.051095165 0.13874437 0.53992295 0.83020067 0.0034820214
-0.074020654 0.047161996 -0.051322628 0.12766483 0.50860631 0.85148185 0.00035782816
-0.06598866 0.046435546 -0.052076422 0.12384124 0.5074414 0.85274059 0.00028829224
-0.053711943 0.044832099 -0.052944757 0.12161992 0.51372081 0.84929353 0.00025765717
-0.043985453 0.042555586 -0.053053588 0.11695643 0.51536429 0.84895271 0.00022693539
-0.033909336 0.043444164 -0.055032838 0.11266513 0.53728533 0.83584148 0.0015821928
-0.024227647 0.043398388 -0.056303255 0.10374177 0.55078435 0.82817531 0.002275855
-0.012612877 0.043423977 -0.057656504 0.052798077 0.56288373 0.824848 0.0032100603
-0.005227074 0.042857766 -0.058142956 0.024864536 0.57906115 0.81490481 0.004856104
0.0063538258 0.04323322 -0.057852428 -0.086001873 0.58447766 0.80683923 0.0049089394
0.017254703 0.044527873 -0.056737885 -0.11469363 0.61931431 0.77672082 0.005799802
0.024933832 0.045454755 -0.055962771 -0.13684058 0.61503673 0.7765336 0.0058306223
0.033845291 0.045092463 -0.054093618 -0.14111948 0.61884004 0.77273697 0.0057738484
0.043552503 0.045003038 -0.052263372 -0.13696682 0.59764171 0.78997743 0.0033203503
0.054862764 0.047096577 -0.051612917 -0.13367836 0.62332028 0.77045566 0.0061797267
0.063504383 0.04913016 -0.051408611 -0.13208756 0.63273519 0.76301962 0.0063985707
0.43858495 0.044917099 -0.057938784 -0.79721105 -0.36460838 0.48116031 0.0041160458
0.44155931 0.041794538 -0.054481048 -0.81024057 -0.3556774 0.46583655 0.0030202002
-0.4154993 0.051003687 -0.055084437 0.49805546 -0.78752863 0.36295915 0.020802956
-0.40370288 0.053769078 -0.054618128 0.29307115 -0.92548954 0.23995498 0.010741265
-0.3949022 0.055724174 -0.054472461 0.24891768 -0.95078778 0.18450636 0.0034119133
-0.3840242 0.058109976 -0.054495133 0.21214823 -0.96592444 0.14826703 6.7740734e-06
-0.37752521 0.059632208 -0.05387022 0.21226567 -0.96586239 0.14850259 0
-0.11156803 0.058346935 -0.050899051 0.22774346 0.62342781 0.74797773 0.014588581
-0.1044243 0.054640852 -0.050970435 0.17938748 0.59087431 0.78656703 0.010337936
-0.095047913 0.056392003 -0.053567275 0.17045754 0.62087804 0.76515013 0.012881866
-0.085741431 0.053954821 -0.053522352 0.13185169 0.59166539 0.79532838 0.0077985749
-0.07493104 0.053783111 -0.055000827 0.1332985 0.61802781 0.774773 0.01265828
-0.064747557 0.05621941 -0.057888974 0.12269898 0.64174187 0.75704181 0.012602545
-0.054607023 0.054868031 -0.058590718 0.11336508 0.63105655 0.76740861 0.011396811
-0.045130383 0.052685339 -0.058717091 0.11354856 0.62187123 0.77484381 0.012230989
-0.038642056 0.051814735 -0.059162669 0.12815657 0.61425304 0.77863288 0.011324153
0.028758802 0.051289868 -0.05920025 -0.13684645 0.68674612 0.71389967 0.014275743
0.035136007 0.052372057 -0.058767244 -0.111904 0.71695322 0.68808109 0.01574369
0.043926656 0.053171881 -0.057703786 -0.1307189 0.69991428 0.7021628 0.013502096
0.056565389 0.052413754 -0.054888092 -0.11813372 0.68870288 0.71535492 0.013269571
0.065871172 0.05600106 -0.055610437 -0.11651038 0.72217405 0.68182838 0.014688342
0.075469844 0.054940883 -0.05314536 -0.14566293 0.72128707 0.67714638 0.017140826
0.084755778 0.055881131 -0.052086283 -0.1350494 0.73965889 0.6592924 0.016267983
0.095925964 0.056880098 -0.050723244 -0.13131891 0.74799806 0.65057987 0.020069918
0.10791576 0.059311327 -0.050176613 0.11654951 -0.80122721 -0.58689964 0.020115092
0.43665949 0.055247791 -0.054236293 -0.75280821 -0.53410232 0.38472661 0.012807783
-0.3727949 0.061036736 -0.05146024 0.21286546 -0.96492034 0.15367834 1.6294087e-05
-0.36434281 0.062304311 -0.055342272 0.21313578 -0.96563762 0.14871846 0
-0.35621813 0.06421829 -0.054488745 0.21617679 -0.96484512 0.14947082 6.254988e-05
-0.34432185 0.066541478 -0.056398787 0.20581864 -0.97180974 0.11499786 0.0020644644
-0.33612043 0.06839361 -0.056231569 0.18648189 -0.97935885 0.077978782 0.0048994827
-0.13641655 0.069337457 -0.051057018 -0.20348635 -0.81217068 -0.54678345 0.019456603
-0.12527098 0.068090178 -0.05316348 0.2243536 0.7638095 0.60519469 0.017965125
-0.11542573 0.065697081 -0.054536588 0.18421967 0.73126191 0.65674889 0.01973437
-0.10434153 0.064666018 -0.056851365 0.16426827 0.70796138 0.68688178 0.015094304
-0.095086083 0.06519872 -0.058630746 0.16622013 0.74950874 0.64078665 0.019697405
-0.085895583 0.062540121 -0.058441453 0.16203095 0.71327752 0.68189532 0.017698545
-0.079675868 0.062087115 -0.0590882 0.13226174 0.72608238 0.67476761 0.018029863
0.075723588 0.060350813 -0.057783239 0.12777425 -0.81524527 -0.56484407 0.019283129
0.084497362 0.06076308 -0.057771448 0.095163882 -0.83478147 -0.5422948 0.020675279
0.093385957 0.060928073 -0.05679924 0.088575296 -0.83537889 -0.54249108 0.019895682
0.10534585 0.06171988 -0.057730675 0.073109463 -0.87753147 -0.47391292 0.019328095
0.11619271 0.061705101 -0.055694837 0.080808222 -0.87221146 -0.48240784 0.018510096
0.12451582 0.06185323 -0.054759484 0.080558054 -0.88693422 -0.45481676 0.017868949
0.13629204 0.062652349 -0.055753153 0.063931324 -0.90054923 -0.43002763 0.016037855
0.14579134 0.06315396 -0.055972114 0.047841776 -0.90621382 -0.42010438 0.014663707
0.15450224 0.063074037 -0.05376365 0.090724073 -0.90213245 -0.42181298 0.015353869
0.16371129 0.064089544 -0.055275854 0.11424457 -0.9301663 -0.34891105 0.0097992886
0.17692301 0.065418944 -0.054816693 0.16002168 -0.94688773 -0.27892071 0.0030740346
0.18596776 0.067047991 -0.054341931 0.18009324 -0.9498862 -0.25550476 0.0013818131
0.19364002 0.06817095 -0.05278378 0.18903534 -0.94730014 -0.2586273 0.0010554767
0.20315008 0.069618486 -0.051091004 0.18517233 -0.95076919 -0.2484937 0.00025852348
0.42700443 0.067446284 -0.055387609 -0.59946668 -0.70629746 0.37654161 0.020098103
0.43339407 0.063266762 -0.053126961 -0.68957329 -0.62521815 0.36550087 0.016033692
-0.32589826 0.071288034 -0.055783242 0.16394171 -0.98591608 0.033055879 0.0070645032
-0.31330729 0.074153364 -0.054479178 0.12515745 -0.98774612 -0.093237601 0.007891247
-0.3048799 0.074817523 -0.054846555 0.10975455 -0.98161453 -0.15616277 0.0053457203
-0.29485083 0.075326487 -0.055886511 0.085788496 -0.97648197 -0.19779617 0.0046766931
-0.28436658 0.075036466 -0.054250963 0.047927927 -0.96561909 -0.25550464 0.0019474871
-0.27560529 0.075453296 -0.055067357 0.031663541 -0.9614051 -0.27330872 0.00079477951
-0.26579228 0.075745307 -0.055402648 0.019232031 -0.95785761 -0.28659877 1.4019238e-05
-0.25545436 0.075503662 -0.053936772 0.018374322 -0.95731282 -0.2884694 3.2867395e-06
-0.24447289 0.076027893 -0.054965924 0.018610375 -0.95718867 -0.28886613 2.4895412e-06
-0.23627172 0.075168379 -0.051591326 0.018582053 -0.95737827 -0.28823867 4.7762052e-07
-0.22554421 0.076433286 -0.05508985 0.016484711 -0.95724422 -0.28881106 1.2901121e-05
-0.21614666 0.076693937 -0.055348061 0.0082784574 -0.95821953 -0.28591397 9.1696784e-05
-0.20565806 0.076783441 -0.054969151 -0.023330571 -0.96024179 -0.27819315 0.00031041718
-0.19715351 0.076204218 -0.05410276 -0.048371322 -0.95990384 -0.27612466 0.00036959248
-0.18607515 0.075637087 -0.055991754 -0.086382806 -0.95698428 -0.27698198 0.00041134568
-0.17397878 0.074308798 -0.055525344 -0.1038973 -0.9455263 -0.30852127 0.0020688239
-0.16420513 0.072982661 -0.054246426 -0.11048191 -0.92925268 -0.35253832 0.0078620277
-0.15553248 0.072687961 -0.056257587 -0.14262448 -0.90720093 -0.39578375 0.012649648
-0.14338376 0.071243152 -0.055394061 -0.15746112 -0.88868922 -0.43062443 0.013596158
-0.13528661 0.071055353 -0.057583362 -0.17811652 -0.86874127 -0.46212882 0.015738139
-0.1257786 0.070254207 -0.058083147 -0.16811615 -0.84164351 -0.51319891 0.01719607
0.19868338 0.070289724 -0.05768653 0.18071008 -0.95579684 -0.2319403 3.9288174e-05
0.20652734 0.070998214 -0.054206297 0.18111959 -0.9542107 -0.23807052 7.7039353e-05
0.21659961 0.07250315 -0.052576341 0.17797536 -0.95365065 -0.24264199 5.9363854e-05
0.22525445 0.07425563 -0.053151045 0.17802832 -0.95307291 -0.24486302 5.1128431e-05
0.23498939 0.076577373 -0.055091456 0.1778045 -0.9532147 -0.24447358 4.6950227e-05
0.24541885 0.078783229 -0.056184176 0.17806453 -0.95256537 -0.24680385 5.1518837e-05
0.25302222 0.079403162 -0.053376894 0.17647554 -0.95143509 -0.25224543 3.0865493e-05
0.38706604 0.079561099 -0.056781165 -0.25648901 -0.92305285 0.2866824 0.00030795884
0.39628553 0.077289514 -0.055034529 -0.27479041 -0.91451448 0.29690659 0.00010784778
0.4040688 0.074351966 -0.056669597 -0.30449578 -0.90195853 0.30619127 0.00072192278
0.41577873 0.071611688 -0.05400933 -0.43465751 -0.8371672 0.33200002 0.0099142138
0.42199171 0.070251696 -0.052311402 -0.49859199 -0.80026048 0.33315024 0.012769146
0.25705302 0.080760784 -0.055650253 0.17575625 -0.95157987 -0.2522015 2.1859651e-05
0.26460028 0.082877755 -0.058352958 0.17664 -0.95269829 -0.24731448 7.6142453e-05
0.27663466 0.083748698 -0.053506609 0.17580326 -0.95044994 -0.25639457 1.1292117e-05
0.28318986 0.085561424 -0.055744305 0.16859201 -0.95728803 -0.23489627 0.0010466847
0.29500139 0.08747711 -0.054673605 0.13467261 -0.9742766 -0.18068862 0.0051344424
0.3051469 0.089319095 -0.054438949 0.092653111 -0.98580009 -0.14004853 0.0076186704
0.33619842 0.08949668 -0.059433993 -0.098700926 -0.98719734 0.1252977 0.008169652
0.3478443 0.087690875 -0.058024704 -0.13712114 -0.97067374 0.19745964 0.0040029683
0.3542608 0.087310791 -0.05497703 -0.13860115 -0.96910387 0.2040281 0.0037862328
0.36606452 0.08518663 -0.054634228 -0.19181097 -0.94738805 0.2562508 0.00070986
0.37422982 0.083533376 -0.054963171 -0.21526954 -0.93922985 0.26740655 0.00038396791
0.38459945 0.081150465 -0.054255322 -0.25334746 -0.92414713 0.2859495 0.00031812815
0.39040643 0.080213286 -0.051650181 -0.25679627 -0.92214382 0.28932065 0.00032485975
0.30632994 0.090434484 -0.057738375 0.073557787 -0.99213415 -0.10128692 0.0099633783
0.31579024 0.091489442 -0.055156618 0.050523084 -0.99532437 -0.082321532 0.010851461
0.32412472 0.092152417 -0.054162037 0.013121458 -0.9993791 -0.032698523 0.011070682
0.33429199 0.091682687 -0.052681621 -0.038251344 -0.99885494 0.028733643 0.010827392
0.34235802 0.09040831 -0.051792938 -0.068318479 -0.9919802 0.10633851 0.0092337653
0.32739958 -0.091083944 -0.045519531 0.056034517 0.99770975 -0.037885927 0.012296179
0.33522046 -0.091753893 -0.045172777 -0.028531281 0.99943262 0.017902559 0.015783593
0.34551087 -0.091488801 -0.043516874 -0.026263107 0.99881572 0.040955432 0.016542243
0.26351577 -0.080261812 -0.049513776 0.1746712 0.95079535 -0.25588691 1.4810013e-05
0.27641809 -0.081110604 -0.043999098 0.17574935 0.94986403 -0.25859332 0
0.28693143 -0.083491817 -0.04555098 0.17680643 0.94981265 -0.25806075 2.5128386e-06
0.296433 -0.0852843 -0.045580216 0.16942619 0.955284 -0.24233691 0.00067665207
0.30556169 -0.08716625 -0.046198633 0.1527337 0.96648943 -0.20632631 0.0041092229
0.31441337 -0.08852759 -0.045086164 0.1074077 0.98039585 -0.16518945 0.0094373636
0.32281953 -0.089702919 -0.043595638 0.082634404 0.98989874 -0.11520453 0.011873657
0.34769565 -0.089400597 -0.048647035 -0.11616316 0.9752565 0.18809791 0.011224986
0.35572028 -0.088737309 -0.044946536 -0.1334728 0.97081894 0.19923747 0.012114465
0.36428335 -0.086876653 -0.044242579 -0.17027521 0.95952481 0.2243178 0.0080380403
0.37465242 -0.083968893 -0.045232814 -0.20634437 0.93331617 0.29384163 0.0021983192
0.38325313 -0.082481794 -0.04345132 -0.22427382 0.92016256 0.32093927 2.4146333e-05
0.39206457 -0.081044994 -0.041382018 -0.22584946 0.91917449 0.32266113 3.3287497e-06
-0.33385304 -0.070982583 -0.042739984 0.070285469 0.99747038 -0.010618995 0.0085376017
-0.32398888 -0.071493983 -0.044955622 0.077272549 0.99545729 -0.055620901 0.0099822609
-0.31454512 -0.071642458 -0.044898964 0.05018802 0.99036354 -0.12907837 0.0094712693
-0.3039462 -0.071117483 -0.042496219 0.027995735 0.97425842 -0.22368909 0.0026772323
-0.29626352 -0.071898967 -0.04462593 0.038320299 0.96522033 -0.25861415 0.0011039058
-0.28531024 -0.071774088 -0.043507133 0.019462427 0.96042174 -0.27786922 6.251836e-05
-0.27571589 -0.072444536 -0.045109857 0.018038936 0.9591676 -0.2822625 1.6596345e-05
-0.26504508 -0.072859958 -0.045798678 0.017437549 0.95881981 -0.28347924 1.3295537e-05
-0.25525123 -0.072867937 -0.045194518 0.017404271 0.95840186 -0.28489119 1.3150718e-05
-0.24405329 -0.073444873 -0.046384275 0.017996088 0.95803225 -0.28609481 8.0479331e-06
-0.23647422 -0.073005587 -0.044441432 0.017899074 0.95798594 -0.28625619 6.0297866e-06
-0.22294231 -0.073443055 -0.045019049 0.013437433 0.95796657 -0.28656498 3.3103275e-05
-0.21535094 -0.073907562 -0.046068653 -0.0015335907 0.9562639 -0.29250127 0.00040321812
-0.2073288 -0.074066967 -0.046080094 -0.018895475 0.95714676 -0.28898641 0.00051804824
-0.195438 -0.073566623 -0.045300819 -0.069315225 0.94087017 -0.33160034 0.0048778388
-0.18425915 -0.072380312 -0.04501681 -0.13016252 0.90274352 -0.41001445 0.012933011
-0.17596862 -0.071749702 -0.045694999 -0.15469219 0.89295489 -0.42273155 0.015506084
-0.16809785 -0.070823267 -0.045169793 -0.16255723 0.85027242 -0.50061154 0.019475235
-0.15472952 -0.070507921 -0.048765421 -0.17669061 0.8478632 -0.49990836 0.020443086
0.21515234 -0.070701517 -0.046836499 0.17969735 0.95040959 -0.25383157 0.00033746581
0.22596392 -0.072660357 -0.046783023 0.17721833 0.95182776 -0.25023505 3.7726226e-05
0.23423181 -0.074005611 -0.04618381 0.17583047 0.95157498 -0.252168 2.9631128e-05
0.24387348 -0.075604923 -0.045596678 0.17635059 0.95089436 -0.25436285 2.3181077e-05
0.25676051 -0.077821016 -0.04509877 0.17487954 0.95014715 -0.25814247 3.7291366e-06
0.26285508 -0.078580983 -0.043810125 0.17455275 0.95011604 -0.25847819 3.0007607e-06
0.39689779 -0.078202032 -0.04603067 -0.22989081 0.9205088 0.3159332 0.00015172276
0.40411949 -0.076454401 -0.0459392 -0.26225534 0.91841501 0.29620278 0.0018945542
0.41477424 -0.074223295 -0.044826765 -0.38216639 0.88363433 0.27044272 0.010349988
0.42399684 -0.070950948 -0.047638614 -0.52511609 0.8059873 0.2731989 0.014542436
-0.38088903 -0.060121998 -0.045770489 0.21294323 0.96463484 0.15535384 3.0904725e-05
-0.37441081 -0.061771736 -0.044274926 0.21565609 0.96349061 0.15867651 3.1791118e-05
-0.36615828 -0.063242301 -0.046529781 0.21465355 0.96389836 0.15755551 3.7455506e-05
-0.35543591 -0.065805122 -0.045190111 0.18486595 0.97215772 0.14399281 0.0014738651
-0.34295774 -0.068438135 -0.045870151 0.16203719 0.98214161 0.095612623 0.0046512671
-0.1655511 -0.06961783 -0.041769538 -0.20565321 0.81553996 -0.54092634 0.019470826
-0.15292875 -0.067149922 -0.042552065 0.22197828 -0.73555976 0.6400606 0.019977078
-0.14475594 -0.066310823 -0.044612497 0.23857389 -0.69910938 0.67403895 0.015063623
-0.13402373 -0.063667417 -0.046004716 0.22365724 -0.69292676 0.68544143 0.015694354
-0.12457412 -0.061795693 -0.048273593 0.25439599 -0.6543864 0.71208227 0.014358654
0.12245139 -0.060266674 -0.048812125 0.10674448 0.79950142 -0.59110332 0.020848772
0.13418047 -0.060524635 -0.047586113 0.084566668 0.81471306 -0.57366478 0.022376327
0.14578116 -0.060919054 -0.046866238 0.083281025 0.83084804 -0.55023247 0.023856355
0.15511176 -0.061786197 -0.048232604 0.097625539 0.85348135 -0.51189709 0.022958182
0.16487461 -0.061294522 -0.044573136 0.17440899 0.8520444 -0.49356046 0.024724996
0.17763877 -0.063366853 -0.045496214 -0.21243985 -0.88237417 0.41986325 0.018744316
0.18471673 -0.064327814 -0.044010185 -0.25523129 -0.88743031 0.38382864 0.015120191
0.19520174 -0.0668424 -0.046103489 0.20822769 0.92906183 -0.30575368 0.0044966643
0.20532866 -0.068428226 -0.045081291 0.20302616 0.93376797 -0.29471627 0.0032787719
0.21376152 -0.069145165 -0.042075157 0.19182706 0.93854707 -0.286935 0.0024631436
0.42857814 -0.068654656 -0.047430456 -0.57278466 0.77695018 0.261278 0.01499642
0.43434602 -0.063274808 -0.044757437 -0.70399976 0.66468549 0.25015494 0.015107294
-0.42349187 -0.050999518 -0.044222251 0.52901185 0.7808255 0.33235234 0.018853776
-0.41415828 -0.052565139 -0.047415756 0.40509176 0.88139904 0.24297385 0.020441268
-0.40419286 -0.054979324 -0.045930091 0.25315988 0.95068616 0.1791812 0.0028422277
-0.39538389 -0.05695764 -0.045643236 0.22943251 0.95867866 0.1682138 0.0010986924
-0.38401732 -0.059315331 -0.046558708 0.21272548 0.96474791 0.15494941 2.954969e-05
-0.13390657 -0.056126781 -0.041744959 0.2590237 -0.6007511 0.75631005 0.0091697229
-0.12507139 -0.053978991 -0.043639675 0.251524 -0.57764083 0.77657366 0.0094927279
-0.11736947 -0.053620946 -0.046155028 0.24993616 -0.55239844 0.79522824 0.006138071
-0.10845603 -0.051967554 -0.048359364 0.21990894 -0.55560869 0.80183488 0.0069875177
0.079243273 -0.051168151 -0.049913213 -0.13781516 -0.67082918 0.72869414 0.0086664585
0.08883819 -0.052151386 -0.048826791 -0.12022295 -0.66978538 0.73275775 0.0082592089
0.093668364 -0.053726602 -0.04900834 -0.13105033 -0.70717424 0.6947881 0.014115384
0.10482668 -0.054460436 -0.04746867 -0.10093095 -0.73253685 0.67320335 0.014740532
0.11362923 -0.054515742 -0.045900974 -0.13154079 -0.72685242 0.67407912 0.016611213
0.12522629 -0.053352859 -0.043002259 -0.14396018 -0.65158433 0.74479079 0.020395907
0.13860586 -0.058896169 -0.044300847 -0.12004919 -0.74263793 0.65884531 0.021660494
0.14443898 -0.058127873 -0.042719185 -0.098831289 -0.73652089 0.66915572 0.023700954
0.15436082 -0.058001321 -0.040824775 -0.12112006 -0.76071441 0.63768607 0.023471048
0.43906572 -0.056559306 -0.047095444 -0.77717143 0.55334914 0.29968208 0.012727856
0.44173256 -0.054298725 -0.042652935 -0.80171835 0.54643822 0.24218354 0.011350407
-0.43167764 -0.041837499 -0.043623611 0.68428653 0.62060696 0.38288245 0.012938521
-0.42702195 -0.046667393 -0.045559712 0.58978748 0.70310867 0.39722639 0.020366793
-0.12300708 -0.047275912 -0.040545423 0.27527064 -0.49238142 0.82570374 0.00057240645
-0.11727441 -0.045674145 -0.041656069 0.26488328 -0.48888668 0.83115983 0.00076208671
-0.10551868 -0.044852242 -0.045170579 0.20214322 -0.48781419 0.84922051 0.0010649121
-0.095170416 -0.044531532 -0.046722673 0.17131555 -0.49908829 0.84944797 0.00089654099
-0.085381337 -0.044154193 -0.047933772 0.13473737 -0.51001382 0.84954798 0.00059635192
-0.077440627 -0.043916725 -0.048955694 0.12624131 -0.50802904 0.8520385 0.00041558957
-0.064026721 -0.040809877 -0.049124621 0.12264216 -0.50055951 0.85697079 3.1141062e-05
0.047651544 -0.040027574 -0.048160791 -0.14539602 -0.56785542 0.81018531 0.00079171348
0.054333668 -0.04204116 -0.048300289 -0.14163432 -0.58026588 0.80201703 0.0013180522
0.06411732 -0.04403498 -0.047860935 -0.14566416 -0.58822829 0.79546803 0.0021071555
0.075632505 -0.043548513 -0.045433294 -0.1346433 -0.58317131 0.80111331 0.0047536911
0.084356837 -0.044804841 -0.044689767 -0.13952734 -0.58069223 0.80207771 0.0056724758
0.094876662 -0.045593306 -0.043303356 -0.12765652 -0.57419842 0.80870265 0.0076453621
0.10294881 -0.04496957 -0.041410927 -0.12176158 -0.53077686 0.83871931 0.0040446338
0.11677802 -0.049386267 -0.0418678 -0.11828543 -0.62080473 0.77499032 0.014048117
0.12172624 -0.049079597 -0.040758781 -0.12596782 -0.61363065 0.77948034 0.014577487
0.44552708 -0.044530716 -0.042856779 -0.84745729 0.42292404 0.32086033 0.0062518171
-0.44048253 -0.031378724 -0.041279763 0.77835661 0.50008804 0.37956944 0.0050703161
-0.43608132 -0.034605607 -0.044442266 0.73138416 0.54021531 0.41622666 0.0058640116
-0.1051495 -0.037877336 -0.041230492 0.20873405 -0.48176631 0.85107654 0.0009710897
-0.096376881 -0.038792998 -0.043243617 0.17659223 -0.48402464 0.85705036 0.00073154864
-0.085790947 -0.037171695 -0.043854974 0.1301394 -0.49358466 0.85990578 2.8221853e-05
-0.075095579 -0.034764916 -0.044030193 0.12169501 -0.49800676 0.85859162 1.8604655e-05
-0.063768797 -0.03482822 -0.045719292 0.12019446 -0.50315362 0.85579771 5.2793552e-05
-0.055736765 -0.035307307 -0.047166973 0.11623961 -0.50678504 0.85419971 8.1509403e-05
-0.045251027 -0.033714991 -0.04772326 0.1087321 -0.51307344 0.85142994 0.00010491084
-0.035137985 -0.032360926 -0.048080154 0.10361954 -0.52087653 0.84731972 7.5531789e-05
-0.012593752 -0.030371767 -0.049399924 0.033195965 -0.54189086 0.83979303 0.0013870444
0.0079563055 -0.030969895 -0.049290515 -0.093033507 -0.54888815 0.83070248 0.0012110079
0.01372371 -0.031362452 -0.048503645 -0.11016558 -0.55238742 0.82627583 0.00083732739
0.026348447 -0.034526408 -0.048335347 -0.14849207 -0.55137247 0.82093763 1.0694498e-05
0.034954894 -0.035212036 -0.047228459 -0.14902171 -0.55103678 0.82106698 1.0936002e-05
0.045527924 -0.035592057 -0.045556918 -0.1436722 -0.54313421 0.82726264 0.00021554207
0.053555109 -0.034596007 -0.043421626 -0.13502654 -0.52553016 0.83999163 0.00065146689
0.06299603 -0.036352895 -0.042884991 -0.14021502 -0.52466768 0.83968061 0.00060669915
0.074101448 -0.036148991 -0.040722612 -0.13593483 -0.50713843 0.85107714 0.00096554746
0.083462477 -0.039445616 -0.041238856 -0.13648768 -0.52566779 0.83966923 0.0020489427
0.4469232 -0.038218576 -0.045624115 -0.85051185 0.39962786 0.34194613 0.0046378858
-0.44317478 -0.025582898 -0.043147799 0.77592492 0.49058709 0.39656618 0.0032120054
-0.078752704 -0.028733572 -0.040025029 0.1225478 -0.4996998 0.85748595 5.0058286e-05
-0.064513698 -0.027570635 -0.041433223 0.11311021 -0.5089528 0.85333055 9.3063245e-05
-0.053470682 -0.024805062 -0.041202467 0.10486624 -0.51940697 0.84806806 7.7723773e-05
-0.044510964 -0.026367083 -0.043215565 0.1047236 -0.52284729 0.84596908 7.8900572e-05
-0.035628241 -0.023223862 -0.04224262 0.10083407 -0.516617 0.85025847 0.00056583283
-0.0245784 -0.023941657 -0.043960586 0.085680202 -0.53130853 0.84283453 0.00020796289
-0.012045119 -0.024945846 -0.046029434 0.027847815 -0.53984046 0.84130657 0.001461108
-0.0063868468 -0.024327153 -0.046189889 0.011915057 -0.54680943 0.83717233 0.0015562149
0.0053137192 -0.025330884 -0.045969687 -0.068067439 -0.54827708 0.83352208 0.0014934338
0.015505018 -0.026824152 -0.045118466 -0.12028407 -0.54839671 0.82752204 0.0006670588
0.025693098 -0.025528336 -0.042387024 -0.14537957 -0.53472275 0.83242798 0.00031451511
0.034864508 -0.026434818 -0.041326057 -0.13705291 -0.52262294 0.84147596 0.00062079146
0.041072175 -0.027944062 -0.041211948 -0.13901 -0.51460963 0.84608108 0.00081121048
0.44900757 -0.0283719 -0.049602821 -0.85248923 0.32059512 0.41289324 0.00070031208
0.45275921 -0.025221972 -0.04382246 -0.86416417 0.32305238 0.38582054 0.00061081361
-0.45151272 -0.012105967 -0.043034025 0.86286134 0.31683508 0.3938095 0.021763137
-0.44599676 -0.017546451 -0.047057204 0.80889124 0.41438138 0.41711268 0.008605767
-0.030614182 -0.019403277 -0.040398613 0.10499546 -0.4817369 0.87000316 0.0054280981
-0.022025384 -0.019804414 -0.041634746 0.072104223 -0.50223559 0.86171943 0.0038365808
-0.011484342 -0.017637784 -0.041469403 0.034521576 -0.47580543 0.87887287 0.0068849875
-0.0026126576 -0.016799683 -0.041454811 -0.031134157 -0.45654222 0.88915676 0.014891306
0.006991744 -0.018173834 -0.040837396 -0.091424242 -0.4722783 0.87669539 0.0067637432
0.012323003 -0.019144572 -0.040519953 -0.11116622 -0.48401603 0.86796927 0.0048033982
0.45628521 -0.013976116 -0.045615736 -0.88679552 0.21825539 0.40737963 0.0068887612
-0.45469046 -0.0042825369 -0.045853455 0.91363335 0.11035139 0.39127582 0.037727654
0.45869717 -0.0069965594 -0.045887034 -0.88780409 0.13095638 0.4411965 0.010547874
0.46151361 -0.0039635142 -0.042423133 -0.91078186 0.071975112 0.40656608 0.014219522
-0.45425424 0.0052231723 -0.045541931 0.90360177 -0.18080182 0.38834858 0.032709956
0.45858631 0.0024638339 -0.049162682 -0.90726703 -0.037340712 0.41889405 0.013499793
0.46108326 0.0039646863 -0.043245018 -0.90862638 -0.084571488 0.40895694 0.012705267
-0.45163286 0.010576645 -0.044938445 0.86405158 -0.2816458 0.41724163 0.026735727
-0.44695303 0.016039118 -0.047071308 0.80824763 -0.41013303 0.42252418 0.009671662
-0.033642475 0.01959368 -0.040172745 0.096532896 0.48333731 0.87009555 0.0051624523
-0.02317629 0.01854022 -0.040703196 0.074182771 0.48062378 0.87378353 0.0062064496
-0.01105098 0.017823195 -0.041636281 0.044128321 0.46865872 0.88227648 0.0078605106
-0.0040361085 0.01753681 -0.041979473 -0.0076606353 0.48637399 0.87371713 0.0088917129
0.0066372738 0.019084344 -0.041516025 -0.088471241 0.49560606 0.86402977 0.0058312034
0.45703304 0.013393076 -0.044293858 -0.88381815 -0.23123862 0.40668681 0.0067248177
