# .PCD v0.7 - Point Cloud Data file format
VERSION 0.7
FIELDS x y z normal_x normal_y normal_z curvature
SIZE 4 4 4 4 4 4 4
TYPE F F F F F F F
COUNT 1 1 1 1 1 1 1
WIDTH 578
HEIGHT 1
VIEWPOINT 0 0 0 1 0 0 0
POINTS 578
DATA ascii
0.3058846 -0.1453605 0.083370127 -0.36330557 -0.18376672 0.91336679 0.00018484508
0.3158617 -0.14510684 0.087305255 -0.34188077 -0.1700452 0.92423052 0.00048675045
0.32088557 -0.14542393 0.089224033 0.32163548 0.16651152 -0.93210751 0.0013842949
0.40859932 -0.14195439 0.089431271 -0.32046443 -0.13690504 -0.93731511 0.0019415097
0.4155041 -0.14644748 0.087464616 -0.34782079 -0.14759821 -0.92587018 0.00074680307
0.42584535 -0.14494891 0.083042137 -0.39408666 -0.17196049 -0.90284288 0.0012220112
0.4320592 -0.14666086 0.080848463 -0.43669599 -0.20077793 -0.87691784 0.0057743024
0.29658878 -0.13312837 0.082145289 -0.42744285 -0.19743983 0.88221884 0.0063474751
0.30650982 -0.13765413 0.085097775 -0.36004737 -0.18048888 0.91530848 0.00020552718
0.31451708 -0.13596976 0.088552162 -0.34517625 -0.16905355 0.92318696 0.00026835385
0.40701395 -0.13435829 0.088719435 -0.33978325 -0.14714952 -0.92892104 0.0009079068
0.41516089 -0.13543735 0.085647769 -0.37246606 -0.16621387 -0.91304004 0.00016970822
0.42604426 -0.13558434 0.08129929 -0.43297464 -0.20313816 -0.87821859 0.0054276376
0.28934097 -0.1248202 0.080953196 -0.44089201 -0.21702251 0.87092799 0.0084493561
0.29236189 -0.12622063 0.081847914 -0.42101476 -0.19666238 0.88547754 0.0069524334
0.30710512 -0.12554482 0.087667294 -0.34042564 -0.17009023 0.92475927 0.00040097127
0.31243071 -0.12648699 0.089575462 0.328646 0.1599469 -0.93081081 0.0010852347
0.39847255 -0.12035003 0.089630023 -0.31108513 -0.13932237 -0.9401145 0.0022634622
0.40466514 -0.12452389 0.087913722 -0.34280851 -0.14959608 -0.92741758 0.00088200351
0.41501528 -0.1254551 0.083933659 -0.4057638 -0.17938504 -0.89620125 0.0021104102
0.42211196 -0.12648205 0.081263512 -0.43040821 -0.19483177 -0.8813566 0.0045262007
0.28640556 -0.11470689 0.081772201 -0.42393336 -0.19062062 0.88540632 0.0055767414
0.29674372 -0.11593203 0.085522242 -0.35672447 -0.17717168 0.91725558 6.2818312e-05
0.3022249 -0.11824702 0.08718922 -0.34495586 -0.17158246 0.92280275 0.00026645797
0.39718917 -0.11437411 0.089084543 -0.33678612 -0.14932466 -0.92966515 0.00090107927
0.40448388 -0.11573711 0.086431235 -0.3511005 -0.15729368 -0.92303151 0.0003102489
0.41656184 -0.11289176 0.08108107 -0.44208753 -0.21046804 -0.87192988 0.0055609993
0.27768093 -0.10365771 0.080539428 -0.46046174 -0.22829744 0.85782009 0.0086560277
0.28496408 -0.10577675 0.082939036 -0.38596326 -0.1937563 0.90193725 0.0027718272
0.29505569 -0.10389918 0.08719252 -0.35030034 -0.17399015 0.92033529 3.6271431e-05
0.30153656 -0.10480201 0.089517362 0.32861829 0.16646485 -0.92967713 0.00090409274
0.39654297 -0.10497165 0.087683126 -0.35387093 -0.154259 -0.92248559 0.00024434045
0.40532765 -0.10567992 0.084314421 -0.38491243 -0.16927791 -0.90729678 0.00049014011
0.41331986 -0.1044266 0.080880992 -0.45918301 -0.19534318 -0.86659801 0.006647178
0.27607313 -0.093986407 0.081785083 -0.43144798 -0.23767537 0.87026614 0.008421463
0.28448752 -0.096370727 0.084569715 -0.36345473 -0.17851463 0.91434848 0.00018393161
0.29460788 -0.095850036 0.088572539 -0.34833252 -0.17307496 0.92125434 7.4956435e-05
0.38774076 -0.093662679 0.089172281 -0.33342463 -0.14984185 -0.93079287 0.0011730184
0.39488965 -0.095060572 0.086590484 -0.35807365 -0.15741533 -0.92032802 0.00016246732
0.40597388 -0.09423779 0.082024433 -0.44049317 -0.20126779 -0.87490404 0.0064696334
0.41152433 -0.098240212 0.080504134 -0.47132376 -0.20465912 -0.85788602 0.0071616117
0.26738685 -0.084541865 0.08025755 -0.46144876 -0.21314271 0.86118245 0.0096036457
0.27574703 -0.084365226 0.083515286 -0.38218337 -0.18681483 0.90500617 0.0020383487
0.28523928 -0.085176677 0.087018952 -0.34523341 -0.17207114 0.9226079 0.0001899364
0.29110458 -0.087596193 0.088813871 0.33067432 0.16500759 -0.92920774 0.0010281669
0.38779297 -0.084102601 0.087466799 -0.35345358 -0.15214787 -0.92299598 0.00039905123
0.39628968 -0.083058439 0.083917178 -0.3957701 -0.17802903 -0.9009282 0.0020155325
0.4043895 -0.084326796 0.080901317 -0.44793585 -0.21303312 -0.86831462 0.0075140423
0.26263741 -0.076076992 0.080059081 -0.45395032 -0.26143658 0.85180986 0.014386002
0.27419114 -0.076345377 0.084462397 -0.37804356 -0.20065734 0.90378082 0.0023314357
0.28247139 -0.077016972 0.087525688 -0.34294495 -0.17806774 0.92232347 0.00021927409
0.38576785 -0.075817063 0.086807765 -0.36113486 -0.1602927 -0.9186337 3.0340476e-05
0.39601612 -0.072982267 0.082246304 -0.42470717 -0.20181438 -0.88255018 0.0047304956
0.40192926 -0.077659503 0.080706239 -0.44909796 -0.192619 -0.87247282 0.0062558735
0.25929657 -0.065211765 0.08133252 -0.4076198 -0.26877823 0.87269956 0.0081216218
0.26717308 -0.065982454 0.083844975 -0.35899058 -0.23125742 0.90423775 0.002336577
0.27671224 -0.064442955 0.087730527 0.32482192 0.19952339 -0.92448962 0.00062408211
0.28141606 -0.065784618 0.0892855 0.31676853 0.19148195 -0.92897385 0.001166783
0.37771377 -0.065108135 0.088106684 -0.34646016 -0.15734264 -0.92477483 0.00032098856
0.38559258 -0.063513868 0.084708802 -0.37505952 -0.16509925 -0.91218019 0.00031550051
0.3957369 -0.065954722 0.081114016 -0.45548707 -0.19844939 -0.86784178 0.0080520427
0.24819784 -0.052901343 0.080922462 -0.43479356 -0.32158756 0.84115165 0.010666335
0.25601378 -0.054253858 0.083198987 -0.37728995 -0.2791312 0.88302773 0.004604971
0.26587448 -0.053819209 0.086652756 0.32480136 0.22969979 -0.91746509 0.00065141305
0.27496895 -0.058448475 0.088471584 0.32041812 0.20817506 -0.9241187 0.00058616773
0.37655553 -0.053955648 0.08659941 -0.36063015 -0.160786 -0.9187457 0.0001579474
0.38477531 -0.055778034 0.083668791 -0.39432177 -0.1737044 -0.90240633 0.002174753
0.3926641 -0.058242068 0.080980539 -0.49664506 -0.23066235 -0.83674282 0.010672363
0.24404866 -0.045862906 0.081431046 -0.40938103 -0.31469074 0.85637426 0.0082343603
0.25550959 -0.045640334 0.085368514 0.3337141 0.26733756 -0.90397209 0.0013030403
0.26433229 -0.043717172 0.088875532 0.29186642 0.22587715 -0.92940497 0.00087020069
0.36781269 -0.044251811 0.088347986 -0.34672099 -0.15296926 -0.92541075 0.00046972407
0.37462589 -0.043783545 0.085570104 -0.36884984 -0.16589794 -0.91456413 0.00020006218
0.3852098 -0.046894684 0.081931308 -0.44575122 -0.20458239 -0.87146538 0.0071098688
0.23484927 -0.034512423 0.081402719 -0.44453368 -0.34247446 0.8277083 0.010957968
0.2404041 -0.030214798 0.084449366 -0.3697615 -0.29492679 0.8810758 0.0050129672
0.25280058 -0.034755528 0.08740925 0.30300364 0.24412929 -0.92118937 0.00011185069
0.35865605 -0.032057956 0.089821421 -0.31756461 -0.14294118 -0.93740094 0.0018569276
0.36629319 -0.035707422 0.087443277 -0.35538319 -0.15670298 -0.92149174 0.00010741266
0.37398061 -0.03571485 0.084403388 -0.38742399 -0.17817983 -0.90451896 0.0017713074
0.38025427 -0.036073964 0.081984758 -0.44110671 -0.21451899 -0.87143934 0.0068227802
0.22523567 -0.023285892 0.0812006 -0.42847514 -0.33699143 0.83835894 0.010328634
0.2346056 -0.026317328 0.083546698 -0.39478391 -0.30892023 0.86528254 0.0082341917
0.24438857 -0.024491942 0.087351985 0.30560511 0.24437818 -0.92026335 0.00024999492
0.25073886 -0.027553223 0.088668481 0.29593036 0.23688026 -0.92537183 0.0003318364
0.35834366 -0.024245327 0.088568114 -0.33783728 -0.16005678 -0.92749548 0.00085343985
0.36461174 -0.026083849 0.086412445 -0.35541284 -0.16195053 -0.92057252 0.00015237823
0.37610173 -0.023958286 0.081492305 -0.45172903 -0.21197686 -0.86660647 0.0083811162
0.21669354 -0.015151398 0.080520898 -0.44918376 -0.33448741 0.82846367 0.011496488
0.2244495 -0.017692175 0.082454346 -0.41232362 -0.31285095 0.85563636 0.009976997
0.23496561 -0.015794141 0.08652737 0.31940207 0.25844094 -0.91169655 0.0005276709
0.24135661 -0.016942583 0.088377304 0.30146098 0.24140817 -0.92241162 0.00034220799
0.35286283 -0.014282798 0.088911764 -0.33456191 -0.17804149 -0.9254024 0.00042021277
0.36569342 -0.015768103 0.084166497 -0.39177996 -0.18280043 -0.90171641 0.0020952635
0.37274042 -0.01597392 0.081414931 -0.44594973 -0.22272921 -0.86690283 0.0080862241
0.20732707 -0.00010218658 0.081440911 -0.44100532 -0.33556607 0.832412 0.012554447
0.21533433 -0.0076084374 0.082110345 -0.4160538 -0.32612303 0.84884804 0.010819498
0.22637221 -0.0047585671 0.086618476 0.32076991 0.2575165 -0.91147792 0.0010971557
0.23336406 -0.0072661354 0.088302433 0.3049641 0.24397613 -0.92058271 0.00031610165
0.34663942 -0.0038200282 0.088916332 -0.33003375 -0.18694355 -0.92527288 0.00034459177
0.35411274 -0.0058712312 0.086622097 -0.34403107 -0.18929532 -0.91967922 0.0001588538
0.36495495 -0.0054859989 0.082518615 -0.43263379 -0.22921057 -0.87194639 0.0081728948
0.19896561 0.0066507068 0.080446988 -0.47336337 -0.39097774 0.78934371 0.019131346
0.20492376 0.0076572895 0.082735978 -0.41715956 -0.34582534 0.84046578 0.014914085
0.21507205 0.0041522263 0.085216694 0.32570702 0.25472838 -0.91050988 0.00092406909
0.22399259 0.0049532256 0.088436879 0.30683735 0.24499229 -0.91968995 0.00016881336
0.34339577 0.004218786 0.088323519 -0.32666066 -0.19454384 -0.92490298 0.00038453552
0.35615891 0.0032097343 0.083851114 -0.38406074 -0.21918367 -0.89691466 0.0035295859
0.19598281 0.016592743 0.082138963 -0.41410798 -0.34207672 0.84350353 0.012752292
0.20413199 0.014444961 0.084310852 -0.38047069 -0.30870152 0.87174845 0.0091769909
0.21593952 0.014772799 0.088327244 0.30699173 0.23915455 -0.92117381 0.00026078057
0.22264618 0.010604562 0.089439802 0.29384699 0.23167031 -0.92735261 0.00037838882
0.33579677 0.014423655 0.088852026 -0.32416081 -0.19215526 -0.92628086 0.00059909647
0.34427097 0.014992325 0.085607305 -0.35133153 -0.21527761 -0.91116512 0.00060184946
0.35510346 0.01265526 0.082140483 -0.42446014 -0.26514623 -0.86575466 0.010070574
0.36020917 0.013591027 0.080053717 -0.4641712 -0.29992092 -0.83342218 0.01327392
0.18727452 0.025334982 0.081568182 -0.45277005 -0.31846356 0.83281463 0.012299387
0.19334565 0.026122449 0.083835848 -0.40146652 -0.30613139 0.86319655 0.0097151203
0.20254719 0.022367792 0.08591526 0.3409096 0.2635518 -0.90239745 0.0026455882
0.32766807 0.024670376 0.089566194 -0.32453832 -0.19666104 -0.92520231 0.00040833841
0.33449814 0.023113625 0.08739879 -0.33574319 -0.20152934 -0.92014259 5.1587711e-05
0.34591743 0.025217975 0.082729034 -0.40887696 -0.25639257 -0.8758325 0.00764901
0.3513999 0.0252115 0.080713004 -0.45920321 -0.26882553 -0.84667891 0.012769205
0.17760347 0.035316259 0.081008315 -0.51682502 -0.38408804 0.76509368 0.020464914
0.18704925 0.033266682 0.083625995 -0.42383716 -0.30577007 0.85256481 0.011576765
0.19526166 0.03650463 0.087137192 0.32826421 0.26606274 -0.90634066 0.0031911358
0.20186818 0.036773156 0.089322247 0.29534739 0.23173022 -0.92686087 0.00012509352
0.31853846 0.039551213 0.089618832 -0.32269743 -0.1940923 -0.92638785 0.00043109126
0.32370317 0.035526883 0.088612616 -0.32795784 -0.19426121 -0.92450327 0.00036425094
0.33357543 0.034810219 0.085139051 -0.34526694 -0.20526296 -0.91578263 0.00026372212
0.34290308 0.034057748 0.081891537 -0.42386433 -0.25456715 -0.86921489 0.0087275775
0.17562467 0.046392202 0.083302699 -0.45270532 -0.3531678 0.81873703 0.014056489
0.18511701 0.046584889 0.086407185 0.31852132 0.25259805 -0.9136402 0.0012961925
0.19589333 0.042995352 0.08896289 0.2976642 0.23312642 -0.92576891 4.5814984e-05
0.31574655 0.043519001 0.089764446 -0.32856378 -0.19807909 -0.92347735 0.00017039081
0.32379875 0.04530235 0.086405359 -0.34393963 -0.20653503 -0.91599613 0.00035395756
0.33560145 0.0443638 0.082310744 -0.4262751 -0.25230855 -0.86869448 0.010253818
0.34046522 0.043331906 0.080798022 -0.47103137 -0.26260728 -0.84212041 0.013709018
0.15932442 0.059774805 0.081439495 -0.46725529 -0.385214 0.79579055 0.017510902
0.16415033 0.056469571 0.082156532 -0.45335564 -0.35143709 0.81912184 0.017953785
0.17382292 0.05536918 0.084983818 -0.3998369 -0.32335442 0.85765517 0.010730954
0.18459122 0.054334581 0.088175423 0.31268576 0.24647658 -0.91732055 0.00090071768
0.19116192 0.051208492 0.089499459 0.29604626 0.23249407 -0.92644644 3.6759022e-05
0.30855426 0.057338916 0.089339964 -0.32343727 -0.19289434 -0.9263801 0.00023965651
0.31458387 0.054709524 0.087705486 -0.33506 -0.20069849 -0.92057317 2.7239901e-05
0.32405698 0.05614014 0.08396101 -0.3675884 -0.20839857 -0.9063381 0.0019893828
0.3329803 0.056002345 0.080821462 -0.43648565 -0.27491179 -0.85668182 0.012975872
0.14904594 0.069262326 0.08051727 -0.50604475 -0.41789263 0.75450939 0.023301786
0.15652868 0.061082609 0.080862999 -0.50260991 -0.38688716 0.77311158 0.019669639
0.16524465 0.064794205 0.084590726 -0.42639825 -0.32629299 0.84363347 0.014941059
0.17582187 0.065404773 0.088132262 0.32083085 0.26339439 -0.90977526 0.0023734174
0.18022601 0.064149328 0.089229599 0.30153245 0.24086554 -0.92253023 0.00032992737
0.30635089 0.064183608 0.088630065 -0.32720521 -0.19339699 -0.92495102 0.00014360648
0.31540161 0.064933181 0.085216835 -0.34529284 -0.20274703 -0.9163332 0.00038332536
0.32478082 0.0649404 0.08187452 -0.4403542 -0.26841828 -0.85676128 0.012397163
0.33161575 0.060207143 0.080431804 -0.46218944 -0.28024843 -0.84133333 0.013876172
0.14624488 0.077662297 0.082254343 -0.48337418 -0.42180946 0.76708943 0.021842888
0.15645745 0.0742964 0.084178045 -0.41710538 -0.35272443 0.83762079 0.016873823
0.1639961 0.074870788 0.086708896 0.3259567 0.28301454 -0.90202832 0.004228503
0.17118384 0.07421945 0.088849083 0.29703125 0.25560069 -0.92002213 0.00090599537
0.29821342 0.075531676 0.08912582 -0.33054611 -0.19730122 -0.92293638 5.6236408e-05
0.30538142 0.074989885 0.086673051 -0.34332034 -0.20799124 -0.91589898 0.00047922388
0.31482989 0.076099418 0.08308772 -0.40430003 -0.25574946 -0.87814224 0.0086220447
0.32337001 0.072638214 0.080775142 -0.50070941 -0.30096871 -0.81160825 0.018771021
0.13584499 0.085093617 0.081744075 -0.41143364 -0.48579168 0.77118659 0.019069018
0.14506201 0.087107226 0.084844932 -0.35407984 -0.36156195 0.86249661 0.012485383
0.1548048 0.085650265 0.087047555 0.29282615 0.29562485 -0.90931779 0.0029272586
0.16272011 0.082500212 0.088244282 0.29177493 0.27359924 -0.91652101 0.0018461435
0.29521868 0.085147537 0.088169619 -0.3348231 -0.19791141 -0.9212625 0.00022331149
0.30398059 0.084218904 0.085251778 -0.37039343 -0.21881925 -0.90273303 0.0040560383
0.31447238 0.08420404 0.081529804 -0.45028502 -0.28893456 -0.84484333 0.012434489
0.11861385 0.096895516 0.080802038 -0.40488249 -0.50753659 0.76057661 0.022532171
0.127058 0.093966655 0.082130201 -0.42451403 -0.49308607 0.75937736 0.021250274
0.13379976 0.094189078 0.083976887 -0.37231922 -0.42802337 0.82351345 0.017618738
0.14488849 0.094534352 0.087088026 0.27737385 0.30984229 -0.90942919 0.0020188207
0.1541269 0.093407087 0.089255035 0.26453653 0.28143466 -0.92239642 0.00026600313
0.28654253 0.094412051 0.08932405 -0.32359913 -0.18818942 -0.92729086 0.00017573721
0.2953445 0.095998891 0.085869066 -0.35851854 -0.21888386 -0.90749896 0.0017922067
0.30417091 0.095659517 0.082805827 -0.45276594 -0.28338179 -0.84539801 0.012938705
0.31000304 0.092446893 0.081403017 -0.46159172 -0.31416106 -0.8295998 0.01491949
0.10623137 0.10634878 0.080404341 -0.45296183 -0.53320158 0.71450788 0.027173512
0.11367129 0.10469087 0.081864893 -0.42854241 -0.47364864 0.76942086 0.021766352
0.12270411 0.10454039 0.08419843 -0.36376041 -0.44063839 0.82068032 0.017542332
0.13549717 0.10556386 0.087932982 0.27315906 0.30812308 -0.91128713 0.0018050898
0.14550267 0.10142729 0.089380801 0.26329035 0.29330966 -0.91904712 0.00063706841
0.27916446 0.10675511 0.089377627 -0.32818541 -0.19416578 -0.92444247 0.00014589522
0.28417876 0.10557713 0.087842189 -0.34851927 -0.21151897 -0.91312319 0.0011361119
0.29668531 0.1051776 0.083484858 -0.42105097 -0.28055423 -0.86255753 0.011172595
0.3031553 0.10762127 0.080679685 -0.53086853 -0.33228478 -0.77959305 0.020222666
0.097646117 0.1181439 0.081749164 -0.43184236 -0.46554318 0.77251649 0.021797452
0.1046221 0.11662358 0.083119556 -0.38216752 -0.42950919 0.81821144 0.017268393
0.11486693 0.11595733 0.085607924 0.30942184 0.34201649 -0.88728952 0.0064240168
0.12614976 0.11307348 0.087712035 0.28342861 0.32705471 -0.90150064 0.0034772155
0.13000804 0.11244491 0.08856082 0.26896375 0.30724004 -0.9128319 0.0017877783
0.27456641 0.11344974 0.089618385 -0.32988039 -0.19212884 -0.92426479 0.00014616575
0.28442258 0.11623782 0.085539378 -0.37320778 -0.21414036 -0.90269595 0.0024692619
0.29360855 0.11384509 0.082775362 -0.46004707 -0.30598545 -0.83350444 0.013393942
0.08635392 0.1268318 0.081422277 -0.45536196 -0.4999952 0.73664796 0.024119452
0.093780473 0.12460209 0.082695544 -0.37525862 -0.42600265 0.82322699 0.016958958
0.10526165 0.12686542 0.086398467 0.29318225 0.34098575 -0.89318126 0.0050972044
0.11578855 0.12491164 0.088571131 0.27067611 0.30343273 -0.91359895 0.0015550918
0.12282784 0.12236142 0.089664415 0.25566125 0.29249251 -0.92145824 0.0006699689
0.26812205 0.12680484 0.089130044 -0.32803205 -0.1918641 -0.92497736 8.5274314e-06
0.27583066 0.12579082 0.086603947 -0.35505012 -0.20834221 -0.91133583 0.0013903482
0.28478968 0.12517214 0.08355169 -0.45978659 -0.27085933 -0.84571368 0.013924232
0.29493499 0.12261151 0.080481954 -0.51450855 -0.34012303 -0.78714508 0.017826734
0.078444801 0.13515268 0.081872456 -0.44353715 -0.4823083 0.75541615 0.023117363
0.084605403 0.13379143 0.083077021 -0.40384242 -0.45457557 0.79389697 0.021532351
0.095792778 0.13685186 0.0869449 0.29656559 0.34701663 -0.88973492 0.0063349134
0.10730852 0.13199681 0.088494733 0.27504113 0.30988407 -0.91012317 0.0026273476
0.26538667 0.1360527 0.088178709 -0.34431592 -0.20499235 -0.91620123 0.00093134801
0.27520972 0.13669416 0.084557705 -0.44207099 -0.25387636 -0.86030227 0.011329003
0.28330275 0.13550037 0.081932478 -0.49336475 -0.26531547 -0.82837135 0.014759379
0.065985933 0.1473472 0.082304277 -0.43274537 -0.49181056 0.75554878 0.022440758
0.07524725 0.1443691 0.083832115 -0.39838439 -0.45090932 0.79873061 0.018663349
0.084245838 0.14413139 0.086123332 -0.31845596 -0.38033125 0.86829364 0.0094566094
0.095051534 0.14400485 0.08892294 0.26289922 0.29823282 -0.91757357 0.0011828099
0.10127731 0.14038697 0.089459166 0.25939587 0.29381776 -0.91999179 0.00086388213
0.25771123 0.14890647 0.088231683 -0.32783073 -0.22525097 -0.91749066 0.00098025694
0.26584852 0.14555566 0.086039156 -0.38970542 -0.23322718 -0.89091796 0.0070014219
0.27183416 0.14706714 0.083599754 -0.47633624 -0.25768304 -0.84065646 0.016209437
0.28294963 0.14300616 0.080497473 -0.56685549 -0.3299987 -0.75483489 0.021257162
0.055903431 0.15543355 0.082268 -0.34770158 -0.53248054 0.77173048 0.023937963
0.064979687 0.15239254 0.083572507 -0.38862666 -0.45545155 0.80095768 0.018601885
0.076521441 0.15494679 0.087379731 0.27015585 0.32457808 -0.9064573 0.0024666765
0.083628058 0.15326492 0.088735364 0.27265805 0.31083295 -0.91051662 0.0021605021
0.2492944 0.15809971 0.088916443 -0.30402827 -0.25255692 -0.91857594 0.00094631565
0.25550961 0.15317774 0.088125408 -0.32846573 -0.22848393 -0.91646349 0.0012427811
0.2658771 0.15514684 0.084035106 -0.43695593 -0.30517602 -0.84613067 0.014699072
0.27230975 0.1562897 0.081513636 -0.55815274 -0.34504291 -0.75459319 0.025968181
0.036902435 0.1657843 0.082243159 -0.29617119 -0.57514399 0.76255625 0.020080799
0.043139208 0.16619381 0.083653174 -0.28373429 -0.49610022 0.82059699 0.01781817
0.055344556 0.16579516 0.085823379 -0.30384433 -0.4523811 0.83846885 0.018032994
0.064494677 0.16393095 0.087015122 -0.24871922 -0.38187948 0.89011616 0.0076233135
0.074075259 0.1633902 0.089301921 0.2421394 0.31151175 -0.91887379 0.0013738688
0.24608453 0.16812849 0.086895108 -0.31556472 -0.30481505 -0.89861375 0.0044744695
0.25711769 0.16405222 0.084943637 -0.38938144 -0.34167424 -0.85535997 0.013234329
0.2676076 0.16566809 0.081214294 -0.50587195 -0.40272763 -0.76282632 0.022331417
0.2705535 0.16237694 0.080871694 -0.54182059 -0.3843455 -0.74746835 0.021977281
0.0094844922 0.1788862 0.081142865 -0.33927837 -0.64961439 0.68036115 0.024653263
0.017791286 0.17623305 0.08243385 -0.3552517 -0.59764612 0.7187596 0.022578135
0.025225243 0.17467533 0.083151288 -0.30075508 -0.54896367 0.77986234 0.018615291
0.038172156 0.17474963 0.085765816 -0.22424562 -0.45306933 0.86281061 0.010365876
0.044436548 0.17272604 0.086230449 -0.2550256 -0.46077743 0.85008591 0.013698929
0.052681115 0.17539497 0.088745072 0.20621747 0.36022714 -0.90978605 0.002823934
0.064238876 0.17087643 0.08932212 0.21484944 0.33739772 -0.91651648 0.0020682311
0.22851913 0.17842758 0.088886619 -0.27478909 -0.28511301 -0.91826004 0.0010001631
0.23359823 0.17521207 0.088380292 -0.2973327 -0.3053019 -0.9046458 0.0029784702
0.24462819 0.17284423 0.085929535 -0.327824 -0.33501294 -0.88334459 0.0071502826
0.25418681 0.17560437 0.082396768 -0.40203375 -0.39519349 -0.82594854 0.014340623
0.26666164 0.17161237 0.080009691 -0.55203825 -0.46743903 -0.69047415 0.023176761
-0.0046837181 0.18928385 0.082001954 -0.36641851 -0.59953886 0.71154112 0.023806708
0.0055605173 0.18368308 0.082517572 -0.33336148 -0.59730667 0.72944832 0.021767274
0.016191263 0.18396413 0.084890045 -0.32146436 -0.53362298 0.78224492 0.021442192
0.025555382 0.18445265 0.086838581 -0.24101061 -0.44176373 0.86415201 0.012245355
0.034381092 0.18554601 0.088900968 0.19622983 0.36438513 -0.91033912 0.0020407878
0.043030273 0.18226941 0.089370213 0.19106582 0.36739513 -0.91022778 0.0027695529
0.21883884 0.18535292 0.089618273 -0.27289951 -0.28572887 -0.91863203 0.00068372313
0.22409733 0.18525745 0.088147327 -0.29838318 -0.30731261 -0.90361851 0.0029291511
0.23590717 0.187149 0.084227175 -0.37572205 -0.41212305 -0.83005273 0.016341757
0.24502949 0.18313098 0.082803331 -0.37443578 -0.44816917 -0.81175256 0.016144924
0.25147673 0.18297645 0.081010818 -0.42281267 -0.48497531 -0.76552492 0.0201215
-0.022772433 0.19815224 0.081636608 -0.32319686 -0.63044602 0.70574898 0.022366991
-0.014813538 0.19570029 0.082649492 -0.34868866 -0.60845554 0.71288007 0.02361026
-0.0041047926 0.19534194 0.085105605 -0.31832933 -0.51356673 0.79681599 0.017605744
0.0055592125 0.19423424 0.086541221 -0.28944749 -0.48920894 0.82273608 0.017753057
0.013676668 0.19572867 0.088612586 0.19375211 0.35802329 -0.91338903 0.0020632197
0.023389677 0.19316716 0.089538604 0.18631463 0.35588038 -0.91577077 0.0015498041
0.21556722 0.19405469 0.088003084 -0.29697999 -0.30677858 -0.90426195 0.0033674028
0.22403665 0.1960834 0.084994942 -0.35944557 -0.38980621 -0.84785032 0.012133854
0.23611733 0.19170849 0.082832314 -0.40623823 -0.4185721 -0.81226104 0.016944978
0.2407876 0.19245923 0.081281275 -0.44873399 -0.44027439 -0.77768648 0.018925618
-0.042171389 0.20943308 0.0812869 -0.36875847 -0.63449317 0.67929053 0.023039717
-0.035478234 0.20694059 0.082333617 -0.35973242 -0.60854244 0.70729673 0.027009308
-0.025950769 0.20485732 0.084093571 -0.31071588 -0.58139092 0.75195754 0.020702904
-0.015372391 0.20260005 0.08556135 -0.28911522 -0.539693 0.79066032 0.022966238
-0.0044822483 0.20668632 0.089083105 0.22113626 0.38741589 -0.89499032 0.0064858021
0.19844113 0.20858932 0.088629246 -0.27570036 -0.28695083 -0.91741401 0.0012874689
0.20516136 0.20633984 0.087372303 -0.29155418 -0.29968604 -0.9083966 0.0021861249
0.21641317 0.20390837 0.084876932 -0.37403756 -0.40882453 -0.83244127 0.013407313
0.22345904 0.20425923 0.082765818 -0.39418826 -0.42238218 -0.81621629 0.014454847
-0.05436172 0.21763235 0.08242479 -0.34276158 -0.62674385 0.69979036 0.024916807
-0.044796154 0.21522075 0.084472477 -0.33578312 -0.56286973 0.75526643 0.021030365
-0.036521941 0.2160071 0.086337566 -0.31102675 -0.49479422 0.81144381 0.021341428
-0.025203213 0.21444193 0.087910749 -0.21664107 -0.39963004 0.89070898 0.0061121015
-0.016391587 0.21153402 0.08855693 -0.20834751 -0.40409195 0.89067441 0.0064882562
-0.0084558148 0.21123208 0.0899527 0.2040658 0.38973692 -0.89803243 0.0060096122
0.18768832 0.21795666 0.088951662 -0.27697191 -0.28967914 -0.9161728 0.0012484416
0.19670591 0.21497554 0.087254062 -0.28332677 -0.29278868 -0.91323644 0.0015437207
0.20560165 0.21506262 0.084692895 -0.39880469 -0.37844819 -0.83530343 0.014520493
0.21460028 0.21516953 0.082096577 -0.43103534 -0.43750939 -0.78917301 0.019262137
0.22147036 0.21392773 0.080501884 -0.47272804 -0.5235492 -0.70881903 0.021861026
-0.080713183 0.2294296 0.081503376 -0.28951845 -0.63330758 0.71770513 0.025075471
-0.07369373 0.22897325 0.08359769 -0.28388169 -0.59410822 0.75262642 0.021589532
-0.065806657 0.22482276 0.083256528 -0.33239043 -0.62913531 0.70264167 0.026068289
-0.05622622 0.22416942 0.085476346 -0.31533954 -0.55935228 0.76660669 0.022205951
-0.045673829 0.22500992 0.087730028 -0.25173455 -0.45469838 0.85432959 0.014402705
-0.03505728 0.222368 0.088808835 -0.23662676 -0.39628762 0.88710994 0.0074298116
0.17922723 0.22396648 0.089592017 -0.26928076 -0.27986217 -0.92150152 0.00072625291
0.18510519 0.22271734 0.088291787 -0.28302461 -0.29676303 -0.91204643 0.0015266122
0.19408059 0.22503085 0.085058346 -0.38898176 -0.37977055 -0.83932573 0.016729152
0.20385791 0.22503211 0.082271002 -0.43063021 -0.41832167 -0.79972786 0.01791722
-0.1017509 0.23897409 0.080802575 -0.30098325 -0.6019339 0.7396518 0.020472378
-0.092917189 0.23755383 0.082184911 -0.28485292 -0.57284266 0.76857668 0.019498654
-0.085399114 0.23655753 0.083451957 -0.26818207 -0.54309237 0.79569405 0.017552033
-0.075549439 0.23264846 0.084617451 -0.27506357 -0.56642294 0.77685589 0.022686226
-0.066518642 0.23430039 0.086991832 -0.23647526 -0.47740719 0.84626341 0.016292308
-0.055929899 0.2328409 0.088473618 -0.23787558 -0.44407228 0.86383736 0.014258475
0.1697467 0.23818648 0.088123947 -0.2863588 -0.30192128 -0.90930855 0.0025977434
0.17500187 0.2353708 0.087460212 -0.28645664 -0.29751083 -0.91073042 0.0021064309
0.18592051 0.23546004 0.084330812 -0.39384529 -0.37287068 -0.84015077 0.015791478
0.19500348 0.23615381 0.081536993 -0.4713845 -0.47452247 -0.74338752 0.022964073
0.20120227 0.23349974 0.080548793 -0.50370312 -0.4770979 -0.72018117 0.024195066
-0.12020507 0.24871685 0.080161974 -0.2862567 -0.57653862 0.76528448 0.018769106
-0.10426529 0.24597916 0.082912564 -0.26118177 -0.52222818 0.81182623 0.013956954
-0.0943764 0.24699764 0.085670449 -0.24040109 -0.45693058 0.85640037 0.01201627
-0.0876837 0.24598303 0.086850241 -0.23684092 -0.42853215 0.87193263 0.0079516387
-0.076115161 0.24616145 0.089201957 0.20983008 0.38367963 -0.8993116 0.0060656196
-0.067523338 0.242239 0.089484744 0.1979841 0.38494158 -0.90145564 0.0053222794
0.15805712 0.24530104 0.089340478 -0.27465031 -0.29440963 -0.91536343 0.0017260287
0.16694333 0.24500716 0.086929798 -0.29555288 -0.31890115 -0.90052789 0.0031993408
0.17468789 0.244688 0.084830791 -0.35387859 -0.39628506 -0.84718841 0.017762963
0.18326738 0.24517301 0.082243256 -0.45069778 -0.46156898 -0.76408482 0.024742551
0.19188014 0.24291551 0.080449209 -0.49956521 -0.49355933 -0.71192271 0.024844809
-0.13623118 0.25902867 0.080321983 -0.2396456 -0.50410891 0.82972533 0.013913947
-0.12306394 0.25532237 0.08203499 -0.26278332 -0.48033503 0.83679342 0.010955022
-0.11514328 0.25553975 0.084012389 -0.2664471 -0.45563838 0.84935248 0.01001172
-0.10672753 0.25429228 0.085541233 -0.26822487 -0.45985034 0.84651828 0.01123584
-0.095505439 0.25382504 0.08803039 -0.21430649 -0.39152372 0.8948642 0.0045242342
-0.08243683 0.25030458 0.089418411 0.20424226 0.38103667 -0.9017185 0.0047913743
0.14622211 0.25832006 0.08888261 -0.27569914 -0.31136322 -0.90941894 0.002426059
0.15602393 0.25426584 0.087307267 -0.28382626 -0.31264076 -0.90647578 0.0026258053
0.16562083 0.25663126 0.083915807 -0.38807502 -0.43290097 -0.81363052 0.020017501
0.17334197 0.25402567 0.082480513 -0.40976849 -0.47485566 -0.7788465 0.022673009
0.18115361 0.25223991 0.080776677 -0.4711515 -0.54538435 -0.69323319 0.029400095
-0.15152302 0.26836553 0.080192812 -0.265576 -0.46141198 0.84650362 0.0086659705
-0.14506197 0.26640782 0.081066944 -0.26471639 -0.4617193 0.8466053 0.0097078746
-0.13528743 0.26525196 0.082956016 -0.25317359 -0.44015446 0.86149132 0.0069329962
-0.12501751 0.26492819 0.085285529 -0.24338783 -0.4181383 0.87517005 0.006240603
-0.11496159 0.26528865 0.087828696 0.21540087 0.36968151 -0.90384626 0.0010190408
-0.10603306 0.26211849 0.08873602 0.20577678 0.36244574 -0.90900445 0.0015048487
0.13520928 0.26957557 0.08843831 -0.27177635 -0.31894743 -0.90797037 0.0029377572
0.14444217 0.26566395 0.087249137 -0.28551027 -0.32636833 -0.90109241 0.0031712546
0.15351 0.26480007 0.084953174 -0.36604953 -0.41886714 -0.83099824 0.015685027
0.16565807 0.26465604 0.081509955 -0.47252035 -0.52215862 -0.7099824 0.024002813
0.17413552 0.26002076 0.080227204 -0.48882157 -0.55654508 -0.6717968 0.023872932
-0.16232654 0.27630898 0.080415189 -0.24887778 -0.40913308 0.87787813 0.0039366996
-0.15523207 0.27475283 0.081668094 0.2451012 0.39740154 -0.88430619 0.0028914225
-0.1444886 0.27606189 0.08492662 0.23015191 0.36014336 -0.90406132 0.00024993348
-0.13514708 0.27626073 0.087250032 0.22385123 0.35552698 -0.90746415 0.0001566749
-0.12643464 0.27603394 0.089244783 0.21054187 0.34372684 -0.91516334 0.0001237269
-0.11908313 0.27261126 0.089677408 0.20436181 0.34167179 -0.91733128 0.00015441862
0.1170618 0.27925169 0.089439392 -0.23344736 -0.33732355 -0.91198415 0.0029177328
0.1257008 0.2742154 0.089103714 -0.2410344 -0.32734668 -0.91364467 0.0021921403
0.13620587 0.27461144 0.086559571 -0.29809594 -0.36158323 -0.88340044 0.0076432885
0.14588438 0.27664909 0.083568536 -0.3802743 -0.47912759 -0.79109305 0.016458116
0.15345263 0.2750223 0.081986248 -0.42965376 -0.53059506 -0.73066175 0.021344366
-0.17404483 0.28716457 0.081609346 0.21993423 0.3871296 -0.8954103 0.00076085393
-0.1647443 0.28367069 0.082599238 0.22318627 0.373454 -0.90039998 0.00026507795
-0.15440007 0.28728649 0.086675309 0.21832249 0.3463636 -0.91234183 0.00061774929
-0.1460942 0.28695893 0.088712953 0.22149399 0.33841553 -0.91455752 0.00051581289
-0.13608745 0.28175968 0.089153364 0.21037018 0.32999536 -0.92024314 0.00073997234
0.1064836 0.2885341 0.088829808 -0.24357489 -0.36063087 -0.90034258 0.0050022146
0.11668389 0.28384668 0.088020995 -0.24837226 -0.37987497 -0.89107025 0.0071361596
0.12409806 0.28548115 0.085781537 -0.29862857 -0.45104316 -0.84105957 0.014308886
0.13483767 0.28458324 0.083612494 -0.36895037 -0.49312994 -0.78784418 0.018946879
0.1429801 0.282758 0.082334459 -0.38941818 -0.52209169 -0.75879759 0.019057566
-0.20053405 0.29857659 0.080807552 0.26317665 0.36962911 -0.89112985 0.0019625835
-0.19403242 0.29703712 0.081542552 0.22779328 0.36598486 -0.90231109 0.0020505928
-0.18384318 0.29473886 0.082748152 0.20642789 0.38005209 -0.90163618 0.00054458081
-0.17646909 0.2961553 0.085066356 0.19646361 0.35080418 -0.91560829 0.0021944526
-0.1647394 0.29292461 0.086321905 0.21413909 0.34785765 -0.91276467 0.00094331516
-0.15564375 0.29310963 0.088632643 0.20482166 0.31565359 -0.92650467 0.0020622483
-0.14727056 0.29088336 0.089906886 0.20235971 0.31077641 -0.92869192 0.0022549899
0.089106709 0.29722935 0.089975119 -0.23167008 -0.33288482 -0.91406602 0.0024899261
0.097059056 0.29498297 0.088890634 -0.23481715 -0.33655214 -0.91191751 0.0029441637
0.10508641 0.29424211 0.087287903 -0.27546963 -0.38789028 -0.87957811 0.0095439954
0.11653846 0.29600275 0.084111929 -0.35535577 -0.5128746 -0.7814613 0.018676957
0.12268728 0.2954368 0.082892954 -0.36082411 -0.53820008 -0.76167351 0.019691169
0.13234122 0.29210827 0.081757814 -0.39286068 -0.58913857 -0.70609933 0.018554315
-0.21147466 0.30926308 0.082269698 0.34712535 0.25045297 -0.90375733 0.0051750839
-0.20445076 0.30544478 0.083153516 0.28782654 0.29163489 -0.91219789 0.005014916
-0.19496626 0.30442798 0.084802665 0.22314112 0.31292346 -0.92319387 0.0040331907
-0.18302047 0.3064748 0.088441759 0.19160315 0.27009878 -0.9435755 0.0050679417
-0.17551246 0.30253091 0.088273704 0.19576941 0.29712158 -0.93455493 0.003875545
-0.16340995 0.3002156 0.089900263 0.18906122 0.28848922 -0.93863183 0.004932228
0.076537929 0.30927894 0.08897955 -0.2529324 -0.37354192 -0.8924638 0.0076762312
0.086624078 0.30598193 0.087735996 -0.25513873 -0.38755035 -0.88583803 0.0073434361
0.093784839 0.3047851 0.086488187 -0.31211862 -0.43599609 -0.84409088 0.015983989
0.10617647 0.30375555 0.083996587 -0.36037567 -0.50168377 -0.78641135 0.018937184
0.11568242 0.301806 0.08245521 -0.37115553 -0.52415133 -0.76649129 0.01996919
-0.220265 0.31567714 0.080199152 0.41490459 0.16573988 -0.89464206 0.0060851164
-0.21641712 0.31665105 0.082305573 0.38469467 0.15685266 -0.90961927 0.0064564301
-0.20726624 0.3163569 0.086821519 0.30712834 0.15074034 -0.93965393 0.0075707063
-0.1958492 0.31445241 0.088704072 0.22546461 0.1973463 -0.95405459 0.0061088954
-0.18948568 0.31180391 0.089493878 0.20515247 0.21022478 -0.95588595 0.0055465782
0.067927256 0.31703919 0.088463485 -0.26817238 -0.39745665 -0.87756014 0.0094477171
0.07561361 0.31431898 0.087582074 -0.26981735 -0.42423862 -0.86441898 0.011130593
0.084949419 0.31503206 0.085229971 -0.3233946 -0.49864286 -0.80422097 0.018877773
0.094886608 0.31313863 0.083572544 -0.34226918 -0.52054071 -0.78223348 0.017668258
0.10127836 0.31367424 0.081652671 -0.38255697 -0.55851412 -0.73601097 0.019538511
-0.21464618 0.32575035 0.082883894 0.39116606 0.050545916 -0.91893101 0.0046527814
-0.20466125 0.32547742 0.087829739 0.28229803 0.079930775 -0.95599103 0.0055225142
-0.19480036 0.32488203 0.089358665 0.22325468 0.073804438 -0.97196215 0.0046904627
-0.18987036 0.32515666 0.089968562 0.18770905 0.071205169 -0.97964031 0.0039678393
0.046488628 0.32837012 0.089727663 -0.24493083 -0.33761811 -0.90885806 0.0036753723
0.054520022 0.32571337 0.088747464 -0.25582063 -0.36037636 -0.89704216 0.0054819528
0.064238742 0.32607132 0.08642152 -0.31055051 -0.45062134 -0.83695811 0.014143444
0.07442499 0.32507482 0.08442127 -0.32483688 -0.50354195 -0.80057889 0.016797975
0.084683597 0.32319552 0.081919134 -0.40223449 -0.57857209 -0.70955032 0.022537926
0.091249228 0.32010958 0.082176492 -0.37114656 -0.55040586 -0.74786603 0.021185165
-0.21491897 0.33194748 0.082437888 0.40565315 0.012219164 -0.91394538 0.003390942
-0.2051554 0.33397013 0.087254412 0.30430147 -0.0028482266 -0.95257151 0.0037739505
-0.19540657 0.33604056 0.089164078 0.22558326 -0.01485491 -0.9741106 0.0027409729
-0.18913914 0.33520162 0.089952126 0.17811002 -0.0031539802 -0.98400557 0.0023273414
0.036577299 0.33768979 0.089010119 -0.26210532 -0.36101583 -0.89496839 0.0066756648
0.045317296 0.33690649 0.08727099 -0.29723021 -0.42064124 -0.8571552 0.012584756
0.053546526 0.33496532 0.086017489 -0.33579323 -0.44370532 -0.83088416 0.015552594
0.063216895 0.3367016 0.082867853 -0.3605552 -0.53280455 -0.76558429 0.020025119
0.071366444 0.33357424 0.081663035 -0.35935846 -0.56850725 -0.74004126 0.021088561
-0.21467595 0.34499666 0.081951395 0.40509695 -0.060612872 -0.91226232 0.0029801661
-0.20557696 0.34530735 0.08684925 0.31835976 -0.05071504 -0.94661236 0.0039773905
-0.19435221 0.34642375 0.089184195 0.20464583 -0.065614633 -0.97663444 0.003487465
-0.18843023 0.34652033 0.089919321 0.16181906 -0.079245649 -0.9836334 0.0027269651
0.01839106 0.34765348 0.089970291 -0.24446042 -0.35651857 -0.90173924 0.0057787546
0.028064001 0.34479934 0.088679485 -0.25292197 -0.36923513 -0.89425713 0.0067825341
0.032582559 0.3497529 0.08607091 -0.35256022 -0.49128205 -0.79645669 0.019342719
0.043543007 0.34518027 0.085035317 -0.34250653 -0.51493698 -0.7858302 0.017593073
0.055612247 0.34182739 0.083108708 -0.37547624 -0.53153855 -0.75926566 0.022125384
-0.21381867 0.35573837 0.082117081 0.40951949 -0.17317387 -0.89571452 0.0059046112
-0.2051259 0.35289776 0.086837605 0.33697093 -0.11186187 -0.93484628 0.0051585031
-0.19551706 0.35474345 0.088946186 0.20088734 -0.16075231 -0.96633482 0.0055598971
-0.18794537 0.35122421 0.08991915 0.16657451 -0.11344112 -0.97948158 0.0039246948
0.0024465038 0.35948098 0.089825712 -0.18069762 -0.41463611 -0.89186615 0.0070247566
0.01529439 0.35503674 0.088319652 -0.27129853 -0.4156048 -0.86814159 0.012073011
0.026662285 0.35419104 0.086002395 -0.35530296 -0.48844051 -0.79698533 0.021705441
0.033534642 0.35519704 0.083887689 -0.37043223 -0.54825163 -0.74980009 0.022082454
0.042895764 0.35230866 0.08223439 -0.37371409 -0.60051143 -0.70691144 0.019394923
-0.21233752 0.36502808 0.080968 0.39838868 -0.29343835 -0.86901116 0.005905157
-0.20508535 0.36431745 0.085523099 0.34181213 -0.25164002 -0.90545106 0.008019004
-0.19430304 0.36717981 0.087045312 0.20061964 -0.31313911 -0.9282757 0.005276077
-0.18565196 0.36427853 0.088862583 0.13528018 -0.24023177 -0.96124285 0.0058077476
-0.17475682 0.36586139 0.08886233 0.09745995 -0.27813503 -0.95558488 0.0055050696
-0.16997388 0.36711144 0.088556595 0.082304142 -0.31034917 -0.94705302 0.0039452822
-0.15667365 0.36724335 0.089220285 0.058118965 -0.34896967 -0.93533009 0.0032589438
-0.14348474 0.36855125 0.089345589 0.046071 -0.3590039 -0.93219835 0.002374619
-0.13570108 0.36819252 0.089931354 0.03881501 -0.3629047 -0.93101752 0.0019373859
-0.11325655 0.36883536 0.089829624 -0.011457033 -0.37542379 -0.92678243 0.00057679164
-0.10351352 0.36905977 0.089402765 -0.024177264 -0.38399464 -0.92301875 0.000352273
-0.09644603 0.36878783 0.08928135 -0.027610861 -0.38715518 -0.92160106 0.00015841282
-0.084736735 0.36774501 0.089336596 -0.025774514 -0.39359486 -0.91892254 0.00017601656
-0.07489872 0.3675845 0.089073144 -0.025644625 -0.3963705 -0.91773242 0.00023356722
-0.067955658 0.36726081 0.089021288 -0.028912816 -0.40575746 -0.91352332 0.00063313358
-0.055686623 0.36624718 0.08919546 -0.029001812 -0.40526488 -0.91373914 0.00091271556
-0.044017803 0.36784473 0.088298619 -0.032455433 -0.44634503 -0.89427221 0.0046335515
-0.035936654 0.36608002 0.088868402 -0.028703678 -0.43155348 -0.90163052 0.0036253731
-0.024479344 0.36593708 0.088697731 -0.048316807 -0.44680116 -0.89332759 0.0051102834
-0.014434083 0.36886609 0.087281249 -0.072715305 -0.50562203 -0.8596853 0.010122417
-0.0042758523 0.36437064 0.088941947 -0.12921993 -0.43892461 -0.88918358 0.0072246729
0.0079220263 0.36477652 0.08689028 -0.27911299 -0.52557153 -0.80366069 0.017649209
0.014348484 0.36555871 0.085178249 -0.32044891 -0.57189411 -0.75514877 0.019810267
0.021624632 0.36327618 0.084250532 -0.3374491 -0.57675266 -0.74396539 0.023471454
0.031760134 0.3605912 0.080282785 -0.461923 -0.60944784 -0.64436048 0.022351712
-0.20255417 0.37578249 0.081506796 0.31145856 -0.37331498 -0.87385899 0.0077240225
-0.19416763 0.37514448 0.08329872 0.19466731 -0.35555887 -0.91415668 0.0047961567
-0.18494147 0.37641633 0.08334633 0.12220635 -0.38637063 -0.91421193 0.0026468905
-0.1741973 0.37402484 0.085181586 0.079891905 -0.36822662 -0.92629713 0.0025894407
-0.16387664 0.37456408 0.085514434 0.057122312 -0.40404573 -0.91295356 0.00054358836
-0.15410724 0.37456819 0.086043939 0.058234401 -0.40211126 -0.913737 0.00051043509
-0.14256965 0.37592089 0.086059153 0.047189396 -0.40799603 -0.91176337 0.00016102227
-0.13442989 0.37338242 0.087651052 0.034703549 -0.39990312 -0.91590023 0.00019040918
-0.12228502 0.37763569 0.086325109 0.005898925 -0.40594268 -0.91387957 0.0002410236
-0.11427256 0.37389019 0.087675542 -0.007499971 -0.39224973 -0.91982818 0.00035103885
-0.10467664 0.37578106 0.086532205 -0.026274519 -0.41356155 -0.910097 0.00056348462
-0.093937509 0.37686837 0.085698016 -0.029680341 -0.4270581 -0.90373689 0.0011867895
-0.085242555 0.37670821 0.085482873 -0.048644457 -0.43677285 -0.89825565 0.0036026025
-0.076032408 0.37627903 0.085442834 -0.035270743 -0.44510445 -0.89478374 0.0038539188
-0.064208768 0.37506095 0.085710756 -0.037145466 -0.469506 -0.88214755 0.0061847945
-0.05340964 0.37202686 0.086752459 -0.0347289 -0.43905762 -0.89778739 0.003377384
-0.043528393 0.3759332 0.084933899 -0.057949979 -0.5458473 -0.83587825 0.016301535
-0.034799211 0.3759461 0.084753335 -0.050490033 -0.57484436 -0.81670362 0.018186437
-0.023904093 0.37898985 0.083272204 -0.093875088 -0.61957598 -0.7793029 0.018822435
-0.014907441 0.37681499 0.083993711 -0.10295266 -0.64709604 -0.75542533 0.02001458
-0.0060159713 0.37574357 0.083810031 -0.16620606 -0.67185479 -0.72179407 0.020401157
0.0064640022 0.37566242 0.082212225 -0.28753614 -0.68956929 -0.6646933 0.018450867
0.014060544 0.37112892 0.082539059 -0.33252284 -0.64240307 -0.69046861 0.016962111
-0.1901997 0.38025206 0.081061676 0.16933489 -0.40635723 -0.8978861 0.0040573697
-0.18033694 0.38132229 0.081255816 0.085241206 -0.43103293 -0.89830089 0.0012690166
-0.17525913 0.38323516 0.080681637 0.067171305 -0.4365198 -0.89718366 0.00089200126
-0.1673058 0.38298494 0.081389278 0.059529614 -0.44681594 -0.89264315 0.00096169492
-0.15450367 0.38306949 0.082173891 0.055812638 -0.42055652 -0.90554798 0.00012473289
-0.14666753 0.38388368 0.082231537 0.051960178 -0.44141537 -0.89579713 0.0012883594
-0.13326807 0.38393992 0.082934894 0.032351017 -0.44128036 -0.89678597 0.0022828495
-0.12518866 0.3847428 0.082986295 0.0088284975 -0.48115268 -0.87659234 0.005891155
-0.11795817 0.38227651 0.084169462 -0.00088314066 -0.42148137 -0.90683663 0.00078162627
-0.10472174 0.38564199 0.082264476 -0.055452239 -0.4946149 -0.86734134 0.0074886186
-0.094233505 0.38435125 0.0824861 -0.063166745 -0.50627804 -0.86005378 0.0088515952
-0.08355587 0.38334683 0.082662262 -0.058100346 -0.53282475 -0.84422868 0.012419459
-0.074706152 0.38656646 0.08114922 -0.055679262 -0.57694334 -0.81488413 0.018744169
-0.064219579 0.38562706 0.081328407 -0.043833446 -0.59472257 -0.80273509 0.019316189
-0.054752767 0.38429984 0.081688903 -0.068671845 -0.63532531 -0.76918536 0.021121358
-0.043793492 0.38210937 0.082377486 -0.08183831 -0.59215039 -0.80166107 0.020648206
-0.034544997 0.38222176 0.08196117 -0.086700156 -0.65648329 -0.74934155 0.023295127
-0.028787553 0.3821806 0.081744581 -0.10657059 -0.68993735 -0.7159813 0.026426816
-0.013976192 0.38057804 0.081922263 -0.11593746 -0.70166129 -0.70301497 0.020595133
-0.13493395 0.39009362 0.080058523 0.022746122 -0.51918674 -0.85435814 0.0096526379
-0.12808907 0.39006096 0.080445617 0.020986566 -0.53392148 -0.84527355 0.010505512
-0.11501282 0.39030546 0.080593713 -0.027889306 -0.51516956 -0.85663438 0.0084072221
-0.10956442 0.39040887 0.080364563 -0.045056485 -0.51119441 -0.85828328 0.007968721
0.3767485 -0.2323674 0.092653736 0.11103448 0.26680091 -0.9573341 0.0070836181
0.38400245 -0.23516297 0.091397367 0.028270084 0.30554113 -0.95175916 0.0058419378
0.39370853 -0.23140067 0.091266401 -0.076709464 0.27305678 -0.95893466 0.0035731329
0.36476648 -0.22271276 0.09148816 0.25333342 0.18186653 -0.95012987 0.0044389307
0.37521526 -0.22584049 0.094577804 0.10750841 0.22582228 -0.96821809 0.0067482749
0.38396075 -0.22571674 0.094538115 0.038248207 0.19556476 -0.97994465 0.0061337072
0.39493909 -0.22374061 0.093822323 -0.061408456 0.20101458 -0.97766155 0.0041402252
0.40463933 -0.22611257 0.091478325 -0.10971996 0.26245645 -0.9586857 0.002842769
0.41441157 -0.22280116 0.09115082 -0.1486979 0.22185345 -0.96367526 0.0034271977
0.35895041 -0.21436438 0.090818949 0.28441632 0.1587985 -0.94545776 0.0033050478
0.36588949 -0.21523969 0.093386434 0.19048728 0.14052252 -0.97158015 0.0058769817
0.37188321 -0.21456814 0.094891056 0.14963092 0.1180611 -0.98166811 0.0060301363
0.38268465 -0.21355422 0.094973527 0.046877488 0.12484922 -0.99106765 0.004541182
0.39382985 -0.21366651 0.094937719 -0.04026401 0.11392953 -0.99267262 0.0032018872
0.40679091 -0.21480322 0.094609834 -0.097297028 0.15834706 -0.98257798 0.0040331609
0.41533497 -0.21454509 0.093800016 -0.15876476 0.13963115 -0.97739291 0.0049976618
0.42283633 -0.21361221 0.093072407 -0.22828428 0.13908571 -0.96360856 0.0057792207
0.35888466 -0.20421435 0.092769444 0.24927716 0.12062576 -0.96089041 0.0048370371
0.3657138 -0.20361474 0.094781905 0.15842214 0.078795038 -0.98422241 0.0047601759
0.37873855 -0.20328441 0.095060781 0.068326861 0.048945583 -0.99646169 0.0031293165
0.38404438 -0.205689 0.095026597 0.021999137 0.062322669 -0.99781358 0.0022346044
0.39369711 -0.20446047 0.095005244 -0.019425781 0.046830893 -0.99871391 0.0013389061
0.40431556 -0.20611811 0.09495981 -0.087798633 0.089306481 -0.99212694 0.0038227523
0.41515359 -0.20407902 0.094940655 -0.16587165 0.042768814 -0.98521948 0.0054358584
0.42597327 -0.20356895 0.09326914 -0.283981 0.02760905 -0.95843232 0.0061563887
0.43089926 -0.20667185 0.091526508 -0.32445422 0.056695819 -0.94420075 0.0057953028
0.34881312 -0.19482829 0.090623207 0.29470107 0.13661739 -0.94577324 0.0034522009
0.35464251 -0.19394268 0.093095757 0.22766848 0.11640496 -0.96675593 0.0053435764
0.36594695 -0.19455357 0.095164597 0.13152012 0.071562067 -0.98872715 0.0043533305
0.37471616 -0.19684185 0.095120378 0.078502268 0.050019119 -0.99565834 0.0036332868
0.38370487 -0.19628517 0.095096208 0.018071612 0.023061985 -0.99957067 0.00059645966
0.39267603 -0.19351743 0.095088221 -0.010976652 0.0031943934 -0.99993467 0.00025730216
0.40523228 -0.19586831 0.095031656 -0.092954002 0.0032199789 -0.99566513 0.0032325543
0.41403395 -0.1958963 0.0949976 -0.16911465 -0.024662863 -0.98528779 0.0047073439
0.42376393 -0.19469382 0.092711605 -0.26283023 -0.055219706 -0.96326059 0.0053328783
0.4318549 -0.19805396 0.090056822 -0.33673143 -0.02275989 -0.9413256 0.0047281943
0.34438232 -0.182478 0.091279835 0.27709472 0.1486467 -0.94927478 0.003686171
0.35654703 -0.18486923 0.094915688 0.16708121 0.08501371 -0.98227108 0.0041253082
0.36614531 -0.18351921 0.095244415 0.097570904 0.054611184 -0.99372911 0.0034502801
0.37377518 -0.18458033 0.095212728 0.051689863 0.032137815 -0.99814594 0.0018125967
0.38121864 -0.18322586 0.095199227 0.0078645451 0.012663064 -0.9998889 0.00028584417
0.39687496 -0.18439355 0.09514156 -0.067235172 -0.020418616 -0.9975282 0.0025542558
0.40578189 -0.18324403 0.095119722 -0.13139668 -0.057823896 -0.98964202 0.0044820271
0.41483796 -0.18496224 0.09439221 -0.19803599 -0.085515305 -0.97645724 0.0047610444
0.42481193 -0.18747811 0.091009736 -0.30135924 -0.10024817 -0.94822615 0.0036217354
0.33627784 -0.17120475 0.090277217 0.31290761 0.15666448 -0.93677378 0.0018377351
0.34516507 -0.17494188 0.092951536 0.24853252 0.1221097 -0.96089584 0.0045656743
0.35690817 -0.17287891 0.095350988 0.12356605 0.069914214 -0.98987043 0.0040596998
0.36448488 -0.17499501 0.095311768 0.10235195 0.048122115 -0.99358356 0.0038927069
0.37544328 -0.17683828 0.095263936 0.0079469169 0.013573401 -0.99987632 0.00033994083
0.38608718 -0.17686069 0.095230363 -0.01643515 0.0035690204 -0.99985856 0.00021720679
0.39551529 -0.17564507 0.095209062 -0.074989617 -0.030686282 -0.99671203 0.0028388854
0.405705 -0.17570944 0.095170029 -0.17294371 -0.0805213 -0.98163474 0.0047062146
0.41429836 -0.17685315 0.093324363 -0.22833282 -0.10477687 -0.96792865 0.0044126445
0.42176151 -0.17849062 0.090639897 -0.30202112 -0.13775617 -0.9432956 0.0028714852
0.3360855 -0.16436186 0.091533795 0.27750376 0.13927925 -0.95057511 0.0033339623
0.3453159 -0.16487019 0.094943367 0.18377876 0.10393503 -0.97745734 0.0049957815
0.35478157 -0.16431941 0.095420077 0.11424041 0.070676707 -0.99093586 0.0041218745
0.36576951 -0.16398515 0.09538801 0.039630909 0.023277497 -0.99894321 0.0016459489
0.37507549 -0.16503489 0.095351145 -0.0015905317 0.0068001417 -0.99997556 4.2860032e-05
0.38366127 -0.16596308 0.095317416 -0.033366885 -0.011564233 -0.9993763 0.0013413194
0.39428338 -0.16255394 0.09530212 -0.11645377 -0.051357951 -0.99186736 0.0042968714
0.40543711 -0.16434857 0.094250053 -0.20851037 -0.093047678 -0.97358388 0.0041300557
0.41584399 -0.16756247 0.091072284 -0.30499509 -0.13900574 -0.94215465 0.0025910682
0.32899043 -0.15495171 0.090566672 0.29726109 0.15293416 -0.94246852 0.0026232016
0.33464375 -0.1541629 0.09295091 0.26159108 0.13426703 -0.95579422 0.0037410464
0.34625265 -0.15410708 0.095521308 0.13947447 0.081516735 -0.98686469 0.0043390589
0.35278222 -0.1536748 0.095503949 0.083601065 0.046186041 -0.99542838 0.0034118136
0.3654941 -0.15636113 0.095444463 0.0067297635 0.014402254 -0.9998737 0.00032270912
