ply
format ascii 1.0
comment PCL generated
element vertex 1373
property float x
property float y
property float z
element camera 0
property float view_px
property float view_py
property float view_pz
property float x_axisx
property float x_axisy
property float x_axisz
property float y_axisx
property float y_axisy
property float y_axisz
property float z_axisx
property float z_axisy
property float z_axisz
property float focal
property float scalex
property float scaley
property float centerx
property float centery
property int viewportx
property int viewporty
property float k1
property float k2
end_header
0.36284339 0.069717616 0.1583893
0.35153139 0.084773682 0.15494695
0.36020437 0.088928059 0.15536346
0.36952996 0.098152742 0.157002
0.34760061 0.11715193 0.15334786
0.36247498 0.10877308 0.1581668
0.33455628 0.13433734 0.14861506
-0.31027427 0.021255154 0.17835948
-0.28918439 0.022322781 0.17350532
0.29800618 0.022818424 0.17778461
0.3172203 0.022137068 0.17843395
0.33332148 0.02186732 0.17749792
-0.33974877 0.038301833 0.17753701
-0.3253645 0.028396452 0.17186168
-0.3160595 0.030791678 0.17020722
-0.29146165 0.026883563 0.17605209
-0.27441442 0.02768844 0.17506936
-0.26042837 0.030843403 0.17695288
-0.24986944 0.028017651 0.17472339
-0.23079719 0.032698598 0.17548838
-0.20755236 0.034010679 0.1753169
-0.19016881 0.034501746 0.17073873
-0.17713739 0.036552183 0.17132695
-0.16230202 0.035362083 0.17758578
-0.14640133 0.037375182 0.17225252
-0.12763134 0.039333366 0.17426437
0.066545822 0.040055964 0.17387959
0.090196334 0.038136311 0.17462784
0.11446056 0.038566407 0.17386007
0.13426608 0.037449174 0.17293054
0.1539856 0.037083924 0.17221934
0.16785699 0.035421718 0.17313258
0.18501836 0.033521645 0.17141879
0.19749233 0.034620799 0.17146556
0.2150643 0.031693444 0.17591511
0.23414195 0.028690515 0.17733905
0.24954288 0.027783444 0.17449415
0.27002802 0.025995292 0.1732434
0.2872304 0.025475148 0.16957781
0.29352641 0.026425617 0.1644927
0.30959862 0.025540344 0.16630799
0.32612151 0.028547131 0.16800083
0.35037461 0.031775277 0.1757587
-0.33397168 0.053653445 0.17566213
-0.16608927 0.041786082 0.16491097
-0.15046252 0.042276435 0.17217061
-0.12786317 0.044377327 0.16824427
-0.11091535 0.044769987 0.17037949
-0.095454782 0.04495091 0.16780764
-0.077518001 0.04507472 0.16965979
-0.066794589 0.045554709 0.17093128
-0.052114364 0.046116784 0.16750599
-0.032090735 0.045991603 0.16874467
-0.014570577 0.046001498 0.16735551
-1.2302306e-05 0.044819612 0.16750072
0.018118534 0.044882149 0.16782928
0.039098542 0.044660401 0.16878437
0.05858849 0.043879885 0.16800462
0.061011456 0.046229057 0.16752937
0.081714772 0.043217164 0.16810456
0.10443942 0.042660046 0.17319953
0.12845153 0.043747641 0.16507071
0.1521862 0.042156871 0.16423172
0.3480019 0.049054697 0.16981627
0.36391157 0.044383518 0.17716563
0.36746615 0.063931294 0.17747518
0.3539333 0.097242013 0.16627672
0.36310807 0.094694205 0.17053887
0.37535924 0.096820801 0.17449224
0.34529722 0.1203642 0.16511202
0.36698902 0.10914162 0.17847976
0.33430755 0.13330235 0.16494989
0.34800944 0.13110457 0.16863853
0.35982415 0.12999384 0.17796722
-0.30883926 0.019884896 0.19163364
-0.28825867 0.020461146 0.19250822
-0.26877797 0.023558192 0.19315243
0.26122585 0.024361018 0.18004555
0.28627965 0.022080328 0.18082374
0.31168625 0.019986328 0.18162568
-0.33010623 0.032487057 0.18552397
-0.31212428 0.030502481 0.18252945
-0.2970871 0.025439918 0.19485073
-0.27990639 0.027542442 0.18839744
-0.26017985 0.029767185 0.18618615
-0.24429707 0.029942954 0.18620837
-0.22868797 0.031269751 0.18755543
-0.21045953 0.031409189 0.18913504
-0.19615693 0.034395687 0.18303141
-0.17927554 0.034215368 0.18708935
-0.16738634 0.038285054 0.18358427
-0.14935078 0.037434049 0.18876466
-0.12646422 0.038862534 0.18924946
-0.10845697 0.040627558 0.19287443
-0.10226582 0.038684383 0.18394578
-0.080784395 0.040268693 0.18858823
-0.030680522 0.039974719 0.19090065
-0.0094212946 0.039823994 0.18766594
0.014538807 0.038887784 0.18864541
0.038501654 0.038530767 0.18960217
0.062998511 0.038037084 0.19061142
0.085143827 0.038874958 0.18899742
0.097250171 0.038888864 0.19020125
0.1116792 0.037923034 0.1863026
0.13601363 0.036959603 0.18604127
0.15600377 0.035960287 0.18455119
0.1683933 0.033250421 0.18728536
0.18247527 0.033117879 0.18770128
0.19701894 0.033217646 0.18433252
0.21442108 0.030270008 0.18977457
0.23342974 0.030079972 0.18783468
0.25024036 0.026274759 0.19018194
0.26645762 0.028697293 0.18213952
0.28497997 0.027622167 0.189603
0.30439183 0.025684923 0.19440198
0.30898753 0.025396992 0.18602452
0.33832297 0.030027891 0.19204882
0.34706318 0.034640446 0.18707985
-0.12537079 0.044186048 0.19425654
-0.094898641 0.041924044 0.1915212
-0.074775822 0.043310497 0.18715841
-0.05950743 0.041816171 0.18832096
-0.05212735 0.042267125 0.18810475
-0.032955952 0.042820062 0.18939915
-0.013330245 0.042319871 0.19407791
-4.7019683e-05 0.041775499 0.18940707
0.018845901 0.041956082 0.18975419
0.038838472 0.041655421 0.19222417
0.043796528 0.043117337 0.18237236
0.062220074 0.041563541 0.18827169
0.087508641 0.04324539 0.18995036
0.35929698 0.053333115 0.18494317
-0.35119423 0.057357941 0.18435016
0.3521899 0.064357243 0.180364
0.36351368 0.071904764 0.18140002
0.35732001 0.080723949 0.18478291
0.37216222 0.087724991 0.18050528
0.35878202 0.10005862 0.18503997
0.35038128 0.11851755 0.18259272
0.33227491 0.13431884 0.18267508
0.35686839 0.12865202 0.18698366
-0.32367513 0.021861881 0.20014042
-0.30997694 0.020169176 0.20245737
-0.28796712 0.021223746 0.2051169
-0.27990019 0.023423828 0.2026841
-0.26784983 0.021726932 0.21224362
0.26670626 0.023158245 0.19886924
0.28140992 0.022156522 0.20350873
0.30059671 0.021176394 0.19805911
0.31462017 0.020819377 0.20091391
0.33191141 0.020993654 0.19767895
0.35344511 0.023454994 0.19943893
-0.34251446 0.033550233 0.19774374
-0.33218923 0.030078346 0.20252283
-0.2960054 0.025113586 0.20019525
-0.27616015 0.027129365 0.20632876
-0.25964528 0.026754789 0.20319024
-0.24085201 0.027874447 0.2053009
-0.22569934 0.028616736 0.20161596
-0.21252884 0.030453848 0.20576957
-0.19738613 0.030014336 0.203329
-0.18065904 0.030528614 0.19997641
-0.15895356 0.033047512 0.20247148
-0.1475483 0.031608574 0.20179212
-0.12787944 0.035612993 0.20337397
-0.10727891 0.039321933 0.20152494
-0.10237178 0.036211431 0.20552272
-0.07827004 0.037916657 0.20577577
-0.056220874 0.037665561 0.20585048
-0.031507038 0.038673915 0.20640388
-0.0092713526 0.037516989 0.20792966
-0.0052999873 0.039521173 0.20453152
0.018319339 0.039065495 0.20666088
0.040246699 0.038280349 0.20787346
0.062783919 0.038131289 0.207636
0.086741827 0.036917955 0.20597637
0.1081608 0.035983607 0.19973528
0.11220833 0.034540895 0.20457752
0.13522214 0.033601362 0.20338482
0.15416676 0.035073102 0.2017315
0.16646783 0.030672185 0.2024169
0.18581767 0.030213557 0.20470858
0.19932584 0.030579265 0.19982198
0.20942485 0.027694369 0.20424318
0.23000212 0.026790265 0.20313449
0.24979289 0.026564535 0.20068517
0.26812384 0.025314599 0.20116463
0.32814154 0.025054868 0.19985694
0.33938512 0.027539551 0.20694892
0.36033607 0.034695674 0.20212112
-0.34680223 0.049146049 0.19846445
-0.096594311 0.042366751 0.20748518
-0.077599615 0.042109292 0.20921534
-0.065844648 0.043589115 0.20139232
-0.049244713 0.043437742 0.20324138
-0.034520246 0.042363215 0.208397
-0.016606376 0.042772248 0.20761302
0.003680015 0.042169563 0.20863166
0.025184005 0.042438824 0.20852557
0.028918132 0.042235132 0.20154354
0.052922051 0.041884642 0.20389068
0.06825573 0.041135356 0.21095729
0.089792058 0.040968064 0.21126932
0.35125133 0.048071325 0.20330714
0.36494029 0.053526904 0.20169055
0.36051983 0.067807883 0.20187244
0.37454855 0.064805567 0.19758518
0.36375713 0.080467276 0.20776796
0.37522301 0.08065065 0.19938713
0.36143106 0.10161249 0.2050021
0.37603959 0.091000751 0.19722886
0.34652624 0.1228359 0.20083487
0.36507675 0.11221816 0.20218527
0.35924003 0.1292533 0.20939249
-0.3283402 0.019299645 0.22153804
-0.30746686 0.017981708 0.22085682
-0.2909613 0.021888882 0.21822897
-0.27912217 0.022357769 0.22431818
-0.26671538 0.022886682 0.21922931
-0.24593252 0.023928195 0.21675912
0.23303632 0.021904022 0.22190627
0.25139436 0.023391295 0.2165757
0.25823268 0.020192523 0.22290471
0.27756447 0.020489797 0.22021165
0.29794809 0.020023677 0.22246867
0.31566808 0.017108236 0.22258008
0.33554482 0.017548881 0.22346231
0.33973303 0.019078344 0.21574129
0.3564443 0.021572091 0.22358331
-0.34275386 0.030939963 0.21810687
-0.25928974 0.025406696 0.22022904
-0.23937763 0.027888339 0.22203508
-0.22527404 0.026799077 0.22099
-0.20606382 0.029147757 0.21838319
-0.19712761 0.030112157 0.22146076
-0.18201645 0.030124415 0.2182596
-0.16350456 0.031504221 0.21974593
-0.14715035 0.032100357 0.22074497
-0.128204 0.034677375 0.22008029
-0.10998878 0.034930415 0.21947178
-0.097343437 0.036348861 0.21858113
-0.079405382 0.03585748 0.22182988
-0.062021684 0.039409973 0.21860181
-0.053439409 0.036961157 0.22404066
-0.032357913 0.037761051 0.2216021
-0.0098575428 0.037807807 0.2214725
0.0036799666 0.038144447 0.22298256
0.016557537 0.036570452 0.21904045
0.039975602 0.035110526 0.22104514
0.059232973 0.037048198 0.22132516
0.063403301 0.034932639 0.22136246
0.084563337 0.03614898 0.22073103
0.10064521 0.035262171 0.21834655
0.11351398 0.034759305 0.2192914
0.13394316 0.033607259 0.21973984
0.15316005 0.032878492 0.21862504
0.16729321 0.030779345 0.21955949
0.18124183 0.030103371 0.22312412
0.19641718 0.029251277 0.22126687
0.21394986 0.025661889 0.21686313
0.23160227 0.025268268 0.21782035
0.26862249 0.024421681 0.2279878
0.34578335 0.031790957 0.21849671
0.3640773 0.031031983 0.21808702
-0.35313079 0.047672607 0.22264388
-0.34148201 0.049548857 0.22179912
-0.07755515 0.043492623 0.21451111
-0.054687567 0.043170135 0.22494954
-0.022311486 0.04141451 0.2168456
0.0099588512 0.042015634 0.21414174
0.054271422 0.041027106 0.22474021
0.3548241 0.047527626 0.22040653
0.36509815 0.049063802 0.22200504
0.36129463 0.065646388 0.22486985
0.37542725 0.066454813 0.22080533
0.38058943 0.081017762 0.21796936
0.3769204 0.091024064 0.21873626
0.36092266 0.11125632 0.22311872
0.37361109 0.11005976 0.22160299
0.34734592 0.12598221 0.22328994
0.36562788 0.12798432 0.22885981
-0.33518514 0.021532793 0.23740613
-0.32909012 0.01629569 0.23817322
-0.31160256 0.017381754 0.23390892
-0.29231149 0.020382393 0.23525879
-0.27347627 0.024240281 0.23543826
-0.26687816 0.021553732 0.23607486
-0.24827683 0.022129327 0.23894551
-0.22457501 0.022731155 0.23712683
-0.2046458 0.02371911 0.23431733
-0.20073719 0.023526046 0.24225512
0.21367732 0.023711987 0.2374498
0.22999871 0.022496 0.2382347
0.24981596 0.021771584 0.23547319
0.2631571 0.021655992 0.23893237
0.27867961 0.019777749 0.2356272
0.30231524 0.017622594 0.23993632
0.32003686 0.016132906 0.23573631
0.33115023 0.017681282 0.23866507
0.34086344 0.016620271 0.23468214
0.35838512 0.020263281 0.23855472
-0.34481636 0.029181853 0.24008846
-0.3221027 0.029235272 0.23315689
-0.27930036 0.024534285 0.23322627
-0.25778764 0.02580633 0.23566622
-0.23839527 0.025342308 0.23690256
-0.23309566 0.026072012 0.23915806
-0.21393737 0.027954035 0.23572737
-0.20085312 0.026875125 0.24138129
-0.18056414 0.02697668 0.2393235
-0.15909359 0.028191887 0.23937967
-0.14550623 0.028673708 0.24070388
-0.12967476 0.031884693 0.23523268
-0.11191375 0.031377144 0.23408115
-0.10076355 0.031191971 0.23896545
-0.079043269 0.032499753 0.23564348
-0.05741762 0.03454078 0.23323423
-0.051958859 0.030698583 0.24175629
-0.032040752 0.033931263 0.23649952
-0.0088405544 0.035240136 0.2371473
-0.0057099275 0.031283751 0.24413967
0.014609057 0.034458935 0.23674104
0.038565077 0.033470195 0.23632577
0.062598042 0.033845246 0.23593473
0.085742578 0.033060029 0.23550305
0.10564564 0.031695746 0.23923388
0.1121969 0.030584067 0.2340461
0.13371681 0.029375892 0.23817411
0.14999455 0.0292609 0.24013793
0.16529308 0.027990242 0.23930317
0.18484096 0.026742442 0.24171153
0.20040722 0.026752559 0.237452
0.21623018 0.028314376 0.23118454
0.2275818 0.026528666 0.23328391
0.24303117 0.026752649 0.23778823
0.3504585 0.029213093 0.23952281
0.36160973 0.035077587 0.23199901
0.37403151 0.031769346 0.24262753
-0.35744882 0.043265026 0.24127617
-0.34324768 0.051749658 0.24250197
-0.023211922 0.042600285 0.22894302
0.0084294397 0.042020015 0.23234659
0.37165007 0.041006185 0.23513815
0.37900436 0.066889115 0.24057633
0.3677865 0.081179611 0.23499632
0.38557863 0.084470555 0.23904693
0.36987302 0.096560098 0.23142391
0.37976527 0.091451034 0.24092254
0.35984266 0.10935648 0.23725057
0.37520134 0.11064787 0.24493617
0.34889308 0.12771702 0.23809713
0.35799307 0.13015197 0.23513192
-0.33097062 0.014754098 0.25458589
-0.30756292 0.015521929 0.25429377
-0.29370478 0.016707759 0.25353709
-0.27874389 0.020987045 0.2461237
-0.26760668 0.019919947 0.25597391
-0.24423525 0.020552646 0.2562584
-0.22456515 0.019759014 0.25650084
-0.21376954 0.02361415 0.25672719
-0.20261464 0.020743784 0.25776505
-0.18181354 0.021826208 0.25494519
-0.16076654 0.023575146 0.25597733
0.15685698 0.024210487 0.26112708
0.19053736 0.024324268 0.25463879
0.19548663 0.02360484 0.25537878
0.21719052 0.022104878 0.25529477
0.23150651 0.02111315 0.25660107
0.25121221 0.020215631 0.25609982
0.27323064 0.017822161 0.25054961
0.28060299 0.01894819 0.25392607
0.29788372 0.017208599 0.25726116
0.3135092 0.016389169 0.25197732
0.33510259 0.017713048 0.25540316
0.34185556 0.014462765 0.25361681
0.36008784 0.020270728 0.25311628
-0.35257146 0.031728968 0.25527641
-0.35024536 0.025779102 0.25376201
-0.18488495 0.026722757 0.25804174
-0.16223384 0.028481003 0.25621396
-0.14555204 0.027191043 0.25875852
-0.12868831 0.029724633 0.25198579
-0.10931093 0.030108906 0.25152361
-0.095932662 0.029867887 0.25712731
-0.080978379 0.030454176 0.25287426
-0.064673372 0.032631256 0.2494368
-0.052738253 0.033556424 0.25213012
-0.033171117 0.033359744 0.2505542
-0.012245858 0.032963067 0.25155574
0.0036799666 0.034876902 0.24951759
0.018291578 0.032724135 0.25057974
0.040367994 0.032372251 0.25072315
0.05869852 0.034222081 0.25028059
0.06239105 0.032271996 0.25323382
0.083763078 0.031467274 0.25289011
0.10146283 0.030493869 0.25480726
0.11493069 0.030782189 0.25017387
0.13261804 0.028300755 0.25562987
0.14787616 0.027546264 0.25621095
0.17018348 0.026220663 0.25690657
0.3676219 0.035197478 0.25160185
0.37345761 0.036913447 0.2538844
-0.35814977 0.050304122 0.25289419
0.36172348 0.045811038 0.24624759
0.37284854 0.053982835 0.24700519
0.36589602 0.062524907 0.24873829
0.38118649 0.066867419 0.25619265
0.36951163 0.082778834 0.25417349
0.38762364 0.081998855 0.26051652
0.37185636 0.095877856 0.25229648
0.36317047 0.11267394 0.25158417
-0.35165644 0.022648346 0.27254969
-0.34186801 0.019062418 0.26648557
-0.32833177 0.015727706 0.26874873
-0.31036264 0.014316123 0.27232668
-0.29355204 0.017684825 0.26960877
-0.27548543 0.018748879 0.2691707
-0.26153782 0.020233147 0.26868969
-0.24669117 0.020784587 0.26736853
-0.22571318 0.021421902 0.26710606
-0.21578059 0.021727204 0.27190819
-0.1969289 0.022005882 0.27013057
-0.17984988 0.021016032 0.26882067
-0.15770923 0.022617083 0.27009428
-0.13500607 0.022668485 0.27146661
-0.11590952 0.02316393 0.27808002
0.14465314 0.024024483 0.27324089
0.1694223 0.023279767 0.27505949
0.18558113 0.022719625 0.26803887
0.2025449 0.021237578 0.26862898
0.21396177 0.022010926 0.26630527
0.23206982 0.020436339 0.26814973
0.25093448 0.017908368 0.26942533
0.26576886 0.019139089 0.26753211
0.28025219 0.017076857 0.27231795
0.29959455 0.016016923 0.27048075
0.31567359 0.01542845 0.27057162
0.33612233 0.015970387 0.26863167
0.3422153 0.013680421 0.27268866
0.36007014 0.018865813 0.26780418
-0.36511177 0.039146215 0.2733534
-0.34675926 0.03224317 0.26315936
-0.20163962 0.02522647 0.2641871
-0.17715995 0.024811041 0.26587868
-0.16092984 0.025693864 0.27248737
-0.14222918 0.026024105 0.27074879
-0.12997611 0.026624389 0.27297175
-0.10823311 0.02710413 0.27083358
-0.085529864 0.028265277 0.27251554
-0.063311383 0.029067861 0.27229947
-0.048266996 0.02929939 0.27200747
-0.032182813 0.028545996 0.27045548
-0.014784025 0.029321905 0.27131799
0.0020093303 0.028866425 0.27261263
0.020195864 0.030449579 0.27016678
0.036595743 0.028838823 0.27120253
0.050301254 0.029335812 0.27257627
0.06857162 0.03016343 0.27038023
0.086329617 0.030545929 0.27248597
0.094036371 0.027817117 0.2726658
0.11689664 0.02838997 0.27314296
0.13506889 0.028614957 0.27172118
0.14810245 0.025670368 0.27393404
0.16487788 0.025837705 0.26738214
0.18763727 0.025539733 0.26347497
0.20890288 0.024551239 0.26511234
0.35045931 0.025077116 0.26936376
0.36413854 0.032094546 0.2682068
0.37521181 0.031622052 0.26842207
-0.35988438 0.046910413 0.27005368
0.36427319 0.045402937 0.26733175
0.37907353 0.054722305 0.26597226
0.36731768 0.064011186 0.26752117
0.38112989 0.068297565 0.27054781
0.36984947 0.088800751 0.27475953
0.37231755 0.078570008 0.2720502
0.37754446 0.093584225 0.26829562
0.36429134 0.11293948 0.27073672
0.37684777 0.11123829 0.26844105
-0.35196373 0.021966644 0.29161313
-0.34189099 0.016576219 0.28863454
-0.32749343 0.018808141 0.28784814
-0.30800855 0.01448359 0.28995651
-0.29472762 0.016111068 0.28842518
-0.28035983 0.01593715 0.2881673
-0.26606801 0.018983614 0.2891455
-0.24676374 0.018333778 0.28572732
-0.22596936 0.019246768 0.28797224
-0.215754 0.020666141 0.29423892
-0.19864023 0.019701976 0.28882512
-0.17763084 0.019564468 0.28868413
-0.15782796 0.020034935 0.28405958
-0.14936303 0.024011154 0.28232422
-0.13600644 0.022491835 0.28974095
-0.11093829 0.022463024 0.28714457
-0.093812227 0.024069171 0.27933252
-0.087970652 0.022208318 0.28851384
-0.067724936 0.022953227 0.285344
-0.044513635 0.022854589 0.28673866
-0.024296016 0.023473613 0.28361112
-0.01731576 0.022242028 0.29280642
0.0029684026 0.022811417 0.28965673
0.022712968 0.023801431 0.28643268
0.0466373 0.023837298 0.28788149
0.070974514 0.023598764 0.28938249
0.10108406 0.023633212 0.2852287
0.12132084 0.021739185 0.29262128
0.13024339 0.022425685 0.28067857
0.15124081 0.020797536 0.28818786
0.18463096 0.020970691 0.28668553
0.20348616 0.018834934 0.28909206
0.2147764 0.020695232 0.28688517
0.23027827 0.018764459 0.28677872
0.25214791 0.017549675 0.28601047
0.2648325 0.016837563 0.29002866
0.27838838 0.015252903 0.28616449
0.29557389 0.014461868 0.29000956
0.31186774 0.01335682 0.28879508
0.33311638 0.014124937 0.28811711
0.34246874 0.01312916 0.29177853
0.36081061 0.016101547 0.28863665
-0.3600156 0.034402728 0.28699058
-0.34865975 0.035855625 0.28703588
-0.26499447 0.024781834 0.28815663
-0.17314322 0.024422023 0.28883117
-0.15075663 0.026878776 0.28416237
-0.12623061 0.026226904 0.28589788
-0.10838518 0.027147677 0.28829888
-0.094522461 0.026645385 0.28648159
-0.081317328 0.026420031 0.28452936
-0.065962188 0.027123634 0.29055202
-0.051790174 0.027484719 0.29236716
-0.035357095 0.027036607 0.29000083
-0.014233697 0.026678706 0.28960252
0.003680015 0.028568812 0.29090506
0.018445596 0.027973223 0.28924131
0.037594318 0.028075963 0.28729141
0.054189812 0.027898155 0.28814313
0.069467984 0.026611526 0.29051632
0.080187529 0.027319588 0.28322071
0.097373798 0.02755685 0.28631708
0.11520801 0.026598688 0.2907832
0.13941105 0.025734413 0.28618431
0.15788279 0.028903389 0.28031483
0.16284752 0.024400711 0.28463048
0.18014231 0.02715612 0.28363532
0.2025 0.025134742 0.2874766
0.3545903 0.02584976 0.29457191
0.35917526 0.028504597 0.28377321
0.3760336 0.030246502 0.28870988
-0.3631584 0.044867374 0.29031014
0.36666325 0.045004308 0.28808847
0.38130596 0.053785015 0.28818423
0.3712709 0.061498929 0.29074371
0.38388908 0.066444404 0.29082403
0.37575546 0.077918261 0.29332802
0.39039052 0.078655243 0.28215575
0.37135968 0.09195748 0.2924
0.37950626 0.093495429 0.29000834
0.36335897 0.11597198 0.28844503
0.37928352 0.11177861 0.29145455
-0.352375 0.021054056 0.31063229
-0.34333554 0.017239705 0.3070308
-0.32587102 0.015328206 0.30729476
-0.30693716 0.015204769 0.30514762
-0.29344904 0.016476892 0.30124661
-0.27617851 0.016585317 0.30311379
-0.25877962 0.016540054 0.30575964
-0.24473935 0.016872074 0.30239537
-0.22646463 0.01662245 0.3052336
-0.21075381 0.019698095 0.3011862
-0.19536753 0.019641034 0.30169818
-0.17779535 0.020157058 0.30447206
-0.16046531 0.019694176 0.29803121
-0.14395869 0.022294804 0.29888567
-0.12948193 0.020322375 0.30063117
-0.11360876 0.018509101 0.3023836
-0.096119352 0.021295469 0.30181161
-0.080327332 0.023922682 0.29901633
-0.067078643 0.021044083 0.30503994
-0.045328949 0.022025626 0.30357918
-0.032434039 0.023998853 0.29974481
-0.018810136 0.021468554 0.3053225
0.0050400076 0.022130944 0.30522004
0.025768951 0.019022875 0.30721149
0.030820146 0.022121292 0.2957167
0.052301545 0.020771027 0.30293441
0.07255403 0.021375697 0.310359
0.079508096 0.021423228 0.29860383
0.097425885 0.022516645 0.30294234
0.11780306 0.023327067 0.30130354
0.13313919 0.021168485 0.30161682
0.14824556 0.021975409 0.30065656
0.16917154 0.021700561 0.29901007
0.18436678 0.019840442 0.30072883
0.20229501 0.019303501 0.30031347
0.21074651 0.018396255 0.30086002
0.22855765 0.017218325 0.30506095
0.25133359 0.016202684 0.30494457
0.26717377 0.016931683 0.3038078
0.27928188 0.014530804 0.30441394
0.29584947 0.016267996 0.30633783
0.31424919 0.015661106 0.30558041
0.33524826 0.015201077 0.30622369
0.3428635 0.012270864 0.31081536
0.36264646 0.016814768 0.30956686
-0.35865134 0.031471293 0.30511639
-0.049836785 0.025185604 0.29761887
-0.025559746 0.02551822 0.29617772
-0.014371672 0.024389539 0.30030695
0.0012895255 0.024813786 0.29752427
0.02173087 0.024453484 0.30039889
0.036002062 0.024510644 0.30200675
0.056803867 0.024697214 0.301148
0.075887203 0.024382479 0.30029666
0.078793906 0.024829466 0.30030882
0.10152075 0.024663549 0.29885459
0.13283741 0.024459217 0.29644737
0.3606495 0.028231774 0.30385917
0.37556997 0.031198926 0.30505499
-0.37557745 0.054509819 0.30528399
-0.36086094 0.054985899 0.30148023
0.36797199 0.04464763 0.30800423
0.38595104 0.050811142 0.30583045
0.38633373 0.073768534 0.31042883
0.39294481 0.075568192 0.30382323
0.37949452 0.093593314 0.31019193
0.36294803 0.11572285 0.30828041
0.37253356 0.11076521 0.31058657
-0.32969454 0.017805304 0.31836957
-0.30944467 0.010831073 0.3183212
-0.29747063 0.013580296 0.31715259
-0.27607682 0.013167907 0.32170162
-0.26179615 0.01527882 0.32023627
-0.24768652 0.014532838 0.31959072
-0.22745442 0.014389854 0.31848505
-0.21446745 0.016070556 0.32127067
-0.19530503 0.016717855 0.31913656
-0.18068273 0.013869368 0.31763718
-0.16283596 0.01625365 0.31995749
-0.14201628 0.018586487 0.32003549
-0.13390598 0.015353307 0.31675828
-0.1166335 0.018703461 0.32219732
-0.090656936 0.019071065 0.31904164
-0.068826638 0.018205345 0.32030997
-0.046382122 0.018953081 0.31967118
-0.022979368 0.02134306 0.31630331
-0.019460816 0.018650688 0.32219207
0.0036118068 0.018612027 0.320223
0.017932206 0.02211158 0.31760472
0.029009029 0.019190751 0.31985763
0.050834388 0.021024287 0.31869057
0.075304881 0.019959427 0.32526138
0.081173368 0.020370312 0.3219648
0.098034449 0.018556643 0.31889141
0.1181207 0.019368488 0.31951672
0.12742877 0.016930617 0.32241258
0.1468128 0.016963936 0.32008392
0.16566953 0.017944124 0.32009786
0.18210848 0.01649376 0.31984609
0.20131323 0.013914201 0.32277068
0.21294549 0.016560178 0.31748009
0.23116015 0.014881477 0.31980205
0.25593603 0.013522342 0.31991646
0.2705957 0.01262318 0.32716039
0.28038579 0.012714516 0.32001963
0.29929996 0.01245125 0.31693503
0.31330281 0.012716133 0.31835088
0.33355892 0.012906991 0.31318983
0.34553531 0.017060209 0.32203928
-0.36177802 0.032412633 0.31658125
-0.3500843 0.036121577 0.31124657
0.36176789 0.02797086 0.32353923
0.37508383 0.035890773 0.3207776
-0.37616387 0.053790096 0.32673448
-0.36111712 0.055389971 0.32685506
0.38456562 0.053588677 0.31859478
0.37349045 0.061013758 0.31112817
0.37832445 0.077318646 0.31386459
0.39405292 0.074229099 0.32527494
0.37721813 0.093905628 0.31323829
0.38872743 0.098099723 0.31721446
0.36312658 0.11608889 0.32616848
0.3819907 0.11230522 0.31442398
0.35924867 0.12769707 0.32213876
-0.35307521 0.019500438 0.32953957
-0.34220389 0.015265822 0.33232147
-0.32754377 0.015965652 0.33619317
-0.30791932 0.011882253 0.33827624
-0.29278341 0.013261266 0.33497036
-0.27248976 0.012974564 0.33313844
-0.26826146 0.014905829 0.33965966
-0.24715871 0.013442747 0.33541867
-0.22460228 0.013931166 0.33530208
-0.21043243 0.013603196 0.33900705
-0.19647335 0.013752416 0.33702025
-0.17963576 0.013285212 0.33757126
-0.16136424 0.013695341 0.33834243
-0.14234355 0.016635507 0.33621651
-0.12787922 0.015275639 0.33605185
-0.11261593 0.015625358 0.33786902
-0.092226379 0.017766267 0.33364859
-0.087100089 0.015758641 0.33704564
-0.066900827 0.017448712 0.33577105
-0.044991132 0.01639165 0.33506483
-0.029586006 0.020581033 0.33656895
-0.019011701 0.017020639 0.33413172
0.00376374 0.018331096 0.33629692
0.023969557 0.017078623 0.33459792
0.031749848 0.017920785 0.33118051
0.052424688 0.017198421 0.33482778
0.074227087 0.016862366 0.33673143
0.076429732 0.017864447 0.33185163
0.097647749 0.016513702 0.33518949
0.11829326 0.015391037 0.33822072
0.13301781 0.016016547 0.33549538
0.15072744 0.01505788 0.33657417
0.16746084 0.016732406 0.33932573
0.18468089 0.014799915 0.337657
0.20491059 0.01405178 0.33680764
0.21494091 0.015859153 0.3385013
0.23207946 0.012556717 0.33592388
0.2505807 0.014117137 0.32879239
0.25744927 0.013049632 0.33870822
0.27753341 0.012172043 0.33579025
0.29973921 0.012601849 0.33572522
0.31688762 0.0123058 0.33663195
0.33288616 0.012254171 0.3346909
0.34831601 0.015475944 0.33558694
0.36174515 0.014484275 0.32919297
-0.36023059 0.033048116 0.33415267
0.36412463 0.027679814 0.34369746
0.37801045 0.027092861 0.3293533
0.36937481 0.043434553 0.33171931
0.38507363 0.054476839 0.33528203
0.37554887 0.060540184 0.33120111
0.38017896 0.076762304 0.33377522
0.38869646 0.074165359 0.33386219
0.37624842 0.095009163 0.33039972
0.38932353 0.094128996 0.33512765
0.37850019 0.11150526 0.33530712
0.35865712 0.12705542 0.34071258
0.37746677 0.12493961 0.33332738
-0.35528123 0.021557882 0.35303202
-0.343537 0.014037881 0.34961176
-0.32787877 0.013423625 0.35557622
-0.31382731 0.012684282 0.35319147
-0.29548934 0.012849808 0.35203126
-0.27562499 0.011975121 0.34931591
-0.26475844 0.013824336 0.34943348
-0.24547377 0.012259714 0.35192642
-0.22574444 0.013168018 0.3548559
-0.21535805 0.01099031 0.35273239
-0.196738 0.013232224 0.35069272
-0.17448047 0.013043899 0.35497963
-0.16097422 0.014868248 0.34925562
-0.14529915 0.012124032 0.35021052
-0.13107081 0.013187718 0.35406235
-0.1135725 0.012699548 0.35263661
-0.094088793 0.013044439 0.3505632
-0.085913785 0.013698991 0.35504112
-0.067715846 0.01507758 0.35196468
-0.04422798 0.014745403 0.35150811
-0.024031803 0.010991748 0.35250673
-0.018765528 0.014573287 0.34971642
0.0036304761 0.014435619 0.34984741
0.024847038 0.015117858 0.3507275
0.030588251 0.015934639 0.34795505
0.050968349 0.014143404 0.35158411
0.070803575 0.016393278 0.35096499
0.079523183 0.010673929 0.35235935
0.097763367 0.016032945 0.35136345
0.11849248 0.015483122 0.35078517
0.13648291 0.014710288 0.35187086
0.14951275 0.012063753 0.34890521
0.16579162 0.013817068 0.35034034
0.18292494 0.013035145 0.35417941
0.20333685 0.012334663 0.35023144
0.21595795 0.011317112 0.3519361
0.23135704 0.012294922 0.35266134
0.25132182 0.011963408 0.35046652
0.26208574 0.0098721124 0.34871316
0.27866936 0.011229284 0.35131139
0.29863501 0.011241261 0.35231146
0.31754944 0.011719443 0.351374
0.33078712 0.012001652 0.35148147
0.34397364 0.013498824 0.35085604
0.36287501 0.015007555 0.34945467
-0.36812168 0.032330994 0.34910744
-0.35990039 0.034636132 0.35464025
0.37822682 0.029182428 0.34795621
-0.37245262 0.048737627 0.34914812
-0.36154735 0.055791244 0.35233882
0.37122661 0.045939654 0.35018578
0.38772509 0.050322849 0.34982979
0.37627074 0.06012949 0.35032895
0.37994424 0.076320864 0.35233456
0.39178106 0.079569563 0.35363093
0.37675214 0.094904393 0.34895927
0.38917628 0.093955636 0.35929379
0.37495595 0.10937481 0.34961104
-0.1519047 0.0076357834 0.37481743
-0.12943506 0.0074552633 0.37665975
-0.02612051 0.0074928962 0.3723152
-0.0025487901 0.0070568882 0.37407339
0.021857023 0.0076186322 0.37602001
0.081988022 0.0069472231 0.37340879
0.10717843 0.0060736388 0.37545449
0.1713565 0.0078551099 0.36637068
0.20353462 0.0079160668 0.37119728
0.22300389 0.0077040903 0.37011501
0.23560712 0.0075260215 0.37004763
-0.35374555 0.018013164 0.36754751
-0.34132579 0.013290536 0.37077257
-0.32396689 0.011879887 0.37130949
-0.30944663 0.011226021 0.36601588
-0.29844898 0.012380283 0.3717972
-0.27720159 0.012111474 0.36976326
-0.2637226 0.011938982 0.36883345
-0.24636647 0.010685768 0.37054369
-0.22728452 0.011078149 0.37064961
-0.21582651 0.010791369 0.37074998
-0.19468918 0.011373561 0.36822608
-0.17856485 0.010745272 0.36852247
-0.16251272 0.01090946 0.36745185
-0.14066237 0.010673732 0.36750257
-0.12178759 0.011067893 0.3748382
-0.11706775 0.010424268 0.36437085
-0.096772492 0.011150043 0.36896765
-0.079220496 0.010643303 0.37044981
-0.067212023 0.011481818 0.3687734
-0.046320617 0.010714844 0.36936688
-0.027651995 0.012153603 0.37052986
-0.015368527 0.01056714 0.37187362
0.0052536698 0.010774478 0.37047982
0.023133185 0.012174137 0.36902729
0.034539588 0.010504421 0.37163621
0.054407872 0.01120887 0.3696771
0.073514357 0.012069665 0.3678987
0.078419201 0.011078674 0.36930552
0.096897863 0.010534767 0.36755985
0.11881863 0.01019568 0.36773732
0.13340469 0.010384433 0.37513739
0.14688066 0.010564789 0.3673777
0.16476576 0.010663379 0.37056771
0.18241741 0.010101892 0.37361395
0.19897848 0.0096583366 0.366539
0.21806543 0.0093806982 0.37655637
0.23079929 0.0093585029 0.37229574
0.25024781 0.0091163255 0.37148762
0.26463473 0.009163063 0.37008592
0.28074405 0.0086832568 0.3714869
0.29662782 0.0097461715 0.37146905
0.30992252 0.010426607 0.36829862
0.32859361 0.010841671 0.37101284
0.34425661 0.012701042 0.3682476
0.36064684 0.014502913 0.36766034
-0.36821288 0.032124311 0.36822456
-0.36222661 0.029165629 0.36701044
0.36578378 0.02740968 0.36326227
0.37973091 0.028616913 0.36895064
-0.37359446 0.051386766 0.37035742
0.37957156 0.050551105 0.36754513
0.38944292 0.046525538 0.37071052
-0.35561088 0.060335323 0.36490113
0.37745988 0.059702192 0.36952117
0.39460731 0.073559061 0.36790013
0.38141483 0.075794265 0.37164116
0.39262244 0.088908166 0.37428111
0.37724546 0.095317274 0.36719894
0.37951037 0.11119787 0.36706603
-0.17375767 0.0070709027 0.39251733
-0.16470321 0.0072088875 0.3814339
-0.14210758 0.0073150247 0.38327667
-0.11312583 0.0075200908 0.38179752
-0.096712194 0.0067659207 0.38687912
-0.079171978 0.00655948 0.38443044
-0.060293596 0.0061675236 0.38242489
-0.050368588 0.0064100772 0.39058372
-0.032341059 0.0063986108 0.38827196
-0.013540348 0.0060704052 0.38622186
0.010428573 0.0056149922 0.38822159
0.033814289 0.0067178011 0.3914544
0.052220594 0.0064196326 0.38497263
0.069583967 0.0059049763 0.37947673
0.080331504 0.0077602454 0.38893083
0.099051632 0.0066823252 0.38419053
0.11953878 0.006241221 0.38335994
0.12925808 0.0069029778 0.38127309
0.15075423 0.0077076666 0.38224998
0.17078662 0.0070218034 0.38739765
0.18151125 0.006976869 0.38680863
0.20231129 0.0070633888 0.38767162
0.22236905 0.0068053193 0.39133707
0.22892058 0.0073383488 0.38686246
0.25913078 0.0073041469 0.38698569
0.2813879 0.0078950934 0.39204693
-0.35314333 0.018124789 0.38986874
-0.33674398 0.017735209 0.38679865
-0.32818162 0.013784628 0.38248751
-0.30975568 0.012237836 0.38494295
-0.29715016 0.012191776 0.39055228
-0.27729663 0.011170272 0.38775739
-0.26239851 0.010971166 0.3844476
-0.24505092 0.0097508505 0.38651174
-0.22752014 0.011381574 0.38830286
-0.21468076 0.0093407482 0.38617584
-0.19499739 0.0095166266 0.38759574
-0.17939046 0.00914976 0.38015628
-0.16536981 0.0098634548 0.38790053
-0.14331138 0.0093492903 0.3822318
-0.11404827 0.0090675838 0.38385513
-0.089538477 0.0098536536 0.38206837
-0.064963423 0.01018833 0.38022014
-0.044711698 0.0098254792 0.38492289
-0.025493499 0.0079448782 0.3897315
-0.0013565035 0.0083381608 0.38772628
0.022630941 0.0088707991 0.38571504
0.05152623 0.0088565871 0.38731435
0.068916917 0.0082839653 0.38204533
0.092138432 0.0086681321 0.38011554
0.11486283 0.0085761063 0.37828815
0.14878547 0.0085639544 0.38349536
0.17138252 0.0084783994 0.38165525
0.19379935 0.0083412938 0.37982285
0.21380503 0.0096308477 0.38404027
0.23461911 0.011732444 0.39089045
0.24688692 0.0079928003 0.3868008
0.26301742 0.0098505206 0.38767424
0.28510371 0.0095116645 0.38792738
0.29897839 0.010115948 0.38646546
0.31075427 0.0094857104 0.38589823
0.33072764 0.010041755 0.38659847
0.34396359 0.0098786466 0.38700166
0.36117131 0.015291423 0.38682511
-0.36948904 0.02923483 0.38686863
-0.36145481 0.031451967 0.38583046
0.36368456 0.028603539 0.38016304
0.37980974 0.031109774 0.38970074
-0.37745699 0.047206175 0.38953546
-0.36242726 0.04633943 0.3894566
0.38028097 0.049566098 0.38708964
0.38975251 0.047031812 0.39045832
0.37685615 0.05857208 0.38788462
0.39472944 0.073411673 0.38918743
0.38148755 0.075345263 0.39001447
0.39048547 0.075125374 0.38419852
0.37778252 0.09511143 0.38562578
0.3899993 0.094539389 0.384666
0.37949538 0.11127442 0.38989666
-0.20896159 0.007602267 0.39753681
-0.18721528 0.0068671554 0.3992838
-0.17406647 0.0075602233 0.40180758
-0.16433516 0.0072864555 0.40493652
-0.14523798 0.0068180822 0.40092042
-0.12891634 0.0065389499 0.39640144
-0.1130989 0.0062708817 0.40260568
-0.098094478 0.0065509528 0.40116474
-0.07984744 0.0066882297 0.40136799
-0.063046172 0.0064555518 0.40342838
-0.034173235 0.0067252517 0.40591368
-0.013647562 0.0062439665 0.40149042
0.0011016363 0.006199602 0.39908835
0.018270541 0.0059776455 0.40470275
0.038994085 0.007865008 0.40744174
0.04850791 0.0061190128 0.40353519
0.070125617 0.0057437941 0.40368095
0.086880311 0.0057044178 0.4028078
0.10220332 0.0051575191 0.40164015
0.11379017 0.0057862289 0.40378043
0.13125351 0.0063614435 0.4016515
0.15048864 0.0058433637 0.40311724
0.16708735 0.0065086335 0.40130824
0.18247929 0.0060699135 0.40208817
0.19457507 0.006867256 0.39928371
0.212255 0.0066669881 0.40075913
0.23228797 0.006685853 0.40330341
0.24772416 0.0072169714 0.39979291
0.26255319 0.0073603019 0.40206334
-0.35251561 0.017620962 0.3997342
-0.33546257 0.012360241 0.40659282
-0.32871008 0.013388049 0.39956436
-0.31293353 0.014013305 0.40236014
-0.29683763 0.014799532 0.39943171
-0.27647862 0.013199192 0.40193826
-0.26200953 0.011197012 0.40278322
-0.24637124 0.011003818 0.40151939
-0.22661774 0.011206999 0.4040381
-0.21357702 0.0096932761 0.40602902
-0.19756569 0.010316778 0.40577435
-0.17306845 0.009290833 0.40560815
-0.15533924 0.0088054314 0.40623242
-0.13772096 0.0093127862 0.40557992
-0.12335852 0.0079947636 0.39764631
-0.12001125 0.008915782 0.4060905
-0.10233437 0.0088275783 0.4062039
-0.084612161 0.0079753585 0.40729973
-0.044204943 0.0082779862 0.4026643
-0.01397849 0.0079826117 0.40729043
0.003680015 0.0082323179 0.40696937
0.14504424 0.0089450814 0.40605286
0.16265291 0.0083938241 0.40676162
0.18034606 0.0086290278 0.40645918
0.1980277 0.0087393783 0.40631738
0.21580797 0.0094894804 0.40535265
0.23334935 0.0086511783 0.40643075
0.25116128 0.0094821304 0.40536216
0.26894861 0.010071024 0.40460488
0.28512329 0.010122448 0.39953956
0.30313909 0.010650799 0.40472746
0.31661406 0.010270014 0.401411
0.32726359 0.012085982 0.40259355
0.34405103 0.012580287 0.40385646
0.36453596 0.015204769 0.39870051
0.38010481 0.023376592 0.39963371
-0.36915034 0.031244598 0.40582314
-0.35733044 0.032079335 0.40444908
0.36709625 0.026928756 0.40074936
-0.37429157 0.048695154 0.40726882
-0.36720517 0.056406651 0.39950901
0.3755469 0.042877179 0.40511405
0.38968006 0.047236439 0.40744516
-0.3767027 0.058676776 0.40951222
0.37750629 0.059170734 0.40611005
0.38131213 0.074913204 0.40809163
0.39366394 0.086450286 0.39330742
0.37878585 0.09522064 0.40405262
0.39156309 0.095082946 0.40958074
0.38261032 0.11086836 0.40529814
-0.20914426 0.0072485767 0.41710332
-0.19429755 0.00707848 0.4179318
-0.17384104 0.007091973 0.41731763
-0.1645615 0.0074733943 0.42110512
-0.14782111 0.0067451112 0.41911441
-0.12666272 0.0058697946 0.41739717
-0.11261809 0.0057721175 0.42274362
-0.099935465 0.0058996864 0.41656467
-0.081772842 0.0053014532 0.41930819
-0.060909782 0.005483523 0.42149466
-0.050898876 0.0057149529 0.4114517
-0.032121047 0.0056972131 0.416574
-0.013183623 0.0054931752 0.41675204
-0.003626121 0.0052834526 0.41466913
0.015437775 0.0053326003 0.41569978
0.034705859 0.0052469447 0.41160899
0.051292129 0.0049996898 0.416646
0.067682639 0.0045175701 0.42159119
0.086701483 0.0046446286 0.41755489
0.10079457 0.0042834915 0.41981322
0.11524572 0.0041810311 0.42162734
0.13251533 0.0046759397 0.41988689
0.15570839 0.0050549433 0.41930062
0.1730683 0.0053339228 0.42069483
0.18189897 0.0056341514 0.41760442
0.19800499 0.0063819177 0.41319001
0.2156384 0.0064933784 0.41822016
0.23908733 0.0059589781 0.41490671
0.24600701 0.0062891431 0.4253844
0.26427534 0.0070224889 0.41811231
0.28160852 0.0074429139 0.4113346
-0.35300574 0.019654594 0.42521152
-0.34976682 0.017589111 0.41876978
-0.32820067 0.014910869 0.41848207
-0.30903053 0.014385834 0.42196661
-0.29770142 0.012725003 0.41401312
-0.27641004 0.011839557 0.41662353
-0.26267365 0.011513997 0.42236105
-0.24538809 0.010350849 0.41790521
-0.22574146 0.010722727 0.42022577
-0.21692538 0.0095175095 0.41322139
-0.18997565 0.0081849843 0.41086558
-0.17998055 0.011653356 0.41145813
-0.15700021 0.011844948 0.41108024
-0.13410255 0.011288594 0.41217786
-0.11119062 0.010676868 0.41338465
-0.088220969 0.010612972 0.41351089
-0.0652797 0.0099459738 0.41482705
-0.042283535 0.010229297 0.41426805
-0.01931335 0.0095435791 0.41562104
0.0036798678 0.010275062 0.41417769
0.026662309 0.010192741 0.41434017
0.049652096 0.0099733137 0.41477314
0.07267452 0.0092598647 0.41618064
0.095682636 0.0091133527 0.41646954
0.11864361 0.0095802322 0.41554871
0.14163917 0.0095525943 0.41560301
0.16455743 0.010183726 0.41435802
0.18746294 0.01074988 0.41324079
0.2104191 0.010859542 0.4130244
0.23330805 0.011343278 0.41207007
0.25303534 0.0095220655 0.41417918
0.28075051 0.010525063 0.41295287
0.29774803 0.01035998 0.42050448
0.31042153 0.0096397661 0.41539127
0.33579382 0.014201067 0.42087784
0.343099 0.011758804 0.42562947
0.35895616 0.016674686 0.41912171
0.38001439 0.023388501 0.41984934
-0.36857459 0.030346805 0.4201012
-0.3570329 0.026778223 0.41752154
0.36823323 0.026679153 0.4194679
0.38328117 0.036906049 0.4176631
-0.37484851 0.045819581 0.41849187
-0.36629817 0.054075316 0.42537823
0.38204852 0.049420781 0.41841274
0.39135063 0.044184379 0.41400281
-0.36135054 0.058905091 0.41879904
0.37857702 0.060347948 0.42419088
0.39598414 0.071895093 0.41074875
0.39293036 0.079078734 0.4113088
0.37584728 0.10133799 0.41697234
0.38241357 0.1108568 0.42090017
0.38841686 0.12582481 0.42546561
-0.18948202 0.0074747652 0.432008
-0.17391594 0.0073608868 0.43124843
-0.16359098 0.0072619058 0.42977822
-0.14962529 0.0062821843 0.44147366
-0.13069542 0.0067210011 0.43403319
-0.11256721 0.0073762238 0.43664706
-0.099623471 0.00609928 0.43342608
-0.079176761 0.0067748874 0.4349052
-0.064224891 0.0069062114 0.43872705
-0.050091941 0.006415531 0.43353102
-0.03067166 0.0061161965 0.43488327
-0.013415862 0.0061014704 0.43343872
0.001276569 0.0061850324 0.43079764
0.018450361 0.0058883652 0.43403211
0.036012538 0.0059753098 0.43327788
0.057676539 0.0059075244 0.43341458
0.070109062 0.0058842339 0.44065458
0.086342998 0.0051005557 0.43542901
0.10724641 0.0051698014 0.43391997
0.11223791 0.0040210932 0.43817747
0.13105001 0.0050856173 0.43790147
0.15060394 0.0052638873 0.43644649
0.16814852 0.005822394 0.4356344
0.17931496 0.006668359 0.43366915
0.19811532 0.0061848052 0.43327799
0.21718672 0.0059268326 0.43647128
0.23215705 0.0063561425 0.42968044
0.2605592 0.0064575113 0.43251407
-0.35068369 0.017633017 0.43626195
-0.32827866 0.01503846 0.43194398
-0.31011701 0.015062485 0.43227196
-0.29468453 0.014610022 0.43401209
-0.27407578 0.012236491 0.43286026
-0.26175851 0.01363524 0.43518278
-0.24653442 0.011415873 0.43235546
-0.22597434 0.010045901 0.43139115
-0.21155614 0.01030216 0.43380845
-0.19255604 0.008745797 0.43159449
-0.17880633 0.0088944174 0.43644178
-0.16361824 0.0092329122 0.44127059
-0.152978 0.0085418075 0.43386635
-0.13614073 0.0083372779 0.43514246
-0.061403073 0.0080260262 0.4416213
0.0036799172 0.0081409812 0.43539101
0.046525676 0.008213304 0.4400062
0.19092974 0.011026047 0.43902117
0.19591767 0.0082209483 0.43528965
0.21394865 0.010188036 0.43807879
0.22757812 0.0092860311 0.43425009
0.25206906 0.0112493 0.43578398
0.26634774 0.010405075 0.43235299
0.28198367 0.011034548 0.43308303
0.29809579 0.010505889 0.43279472
0.31197467 0.013376564 0.43502796
0.32829922 0.012033552 0.43091378
0.35905394 0.016353901 0.4365238
0.37685537 0.023173902 0.43926427
-0.3680667 0.030030506 0.43603444
-0.3585875 0.031338152 0.43590078
-0.34139296 0.028435286 0.42905176
0.36812603 0.026463753 0.43738279
-0.37634966 0.048273828 0.43453029
0.37756416 0.042225983 0.44207594
0.39185178 0.048356488 0.43509477
-0.37513098 0.07342127 0.43885982
0.37976724 0.067614973 0.44008595
0.39688447 0.070807084 0.43225089
0.38255274 0.074411981 0.42672557
0.39446193 0.078190841 0.43310839
0.38062084 0.097560577 0.43078873
0.39552167 0.099110752 0.43122667
0.37712482 0.12228295 0.44185752
0.38918126 0.11549492 0.43865111
0.38865209 0.12636651 0.43468842
-0.19963047 0.0075844303 0.44573826
-0.17419094 0.007384114 0.44350216
-0.16396761 0.0078127719 0.45106021
-0.1123454 0.0064927898 0.44627377
-0.099315606 0.0068211928 0.45744786
-0.080790475 0.0061848201 0.44952828
-0.050104327 0.0071908571 0.45281151
-0.026738804 0.0059977844 0.45081609
-0.014192059 0.007124804 0.45818928
0.0038653612 0.0067358352 0.45215413
0.020239018 0.0050005205 0.44659361
0.03452627 0.0057407282 0.45344588
0.050913107 0.005441431 0.44783005
0.081758253 0.0052844323 0.44898069
0.10000511 0.0052069612 0.44529864
0.11650115 0.0061046556 0.45209247
0.13205269 0.0045537315 0.44992316
0.15798199 0.0053289235 0.45322242
0.18108663 0.006929338 0.44716474
0.19863406 0.0066459179 0.45357728
0.21646337 0.0073274709 0.45638111
0.22492233 0.0072178058 0.44642353
-0.35205638 0.021761037 0.44476449
-0.34706673 0.019487254 0.45317829
-0.32735619 0.018269245 0.44907638
-0.30999607 0.018661119 0.45085916
-0.29337102 0.018019006 0.45158038
-0.27393785 0.016686618 0.45158482
-0.26160914 0.016847584 0.45657185
-0.24601692 0.014675565 0.45040324
-0.22443843 0.013421223 0.45149168
-0.20835236 0.013579991 0.45667046
-0.191861 0.010694541 0.4532935
-0.18050021 0.012701467 0.45068383
-0.16099438 0.012639903 0.45595241
-0.14443578 0.010558628 0.44939658
-0.1340622 0.013305906 0.4558726
-0.11410521 0.011570215 0.45114061
-0.095041759 0.0097169429 0.44772679
-0.087991089 0.014145143 0.45792028
-0.070363574 0.012354061 0.45106307
-0.047762103 0.01169638 0.45566067
-0.029987454 0.011956926 0.45076075
-0.015295164 0.0089098997 0.44577995
0.0047511971 0.011506647 0.45258984
0.016861003 0.015179902 0.45518225
0.031417467 0.010190487 0.44993526
0.055181172 0.010701075 0.45207036
0.061196506 0.015744634 0.45714802
0.079225555 0.011123855 0.45424479
0.10409433 0.010659423 0.45662963
0.12863214 0.011046041 0.45885557
0.1461017 0.008218009 0.44887254
0.17254585 0.009594541 0.45142528
0.20310445 0.010732189 0.44986632
0.21671388 0.014025748 0.45718986
0.23373789 0.012577455 0.45223522
0.24961214 0.011887614 0.44978824
0.26113486 0.014186669 0.4533709
0.28205618 0.014938582 0.45272902
0.30061033 0.014495615 0.45320883
0.3155286 0.015587628 0.45311674
0.33272222 0.017681822 0.45076573
0.34866345 0.017806709 0.44669157
0.35921806 0.017694611 0.4503423
0.37971979 0.022734292 0.44294515
-0.36812738 0.032318056 0.44486251
-0.36718085 0.031134591 0.45726347
-0.35081089 0.026502067 0.45033491
0.3668175 0.026280994 0.45455259
0.38171002 0.03141183 0.45088723
-0.37638929 0.047015168 0.45359999
0.39202994 0.04293035 0.4511399
-0.38706636 0.073369116 0.45046109
-0.37361485 0.070189089 0.45771497
0.38089758 0.063020751 0.45120198
0.39716262 0.070471033 0.45361072
-0.3890653 0.079934455 0.45031217
-0.37584361 0.076585457 0.4445712
0.38460857 0.081841528 0.44557884
0.39665672 0.079387709 0.45020375
0.3845306 0.10576738 0.44554019
0.40043733 0.099320337 0.44974625
0.37980685 0.1096148 0.45112523
0.36898541 0.12809967 0.4491168
0.37341127 0.13789058 0.45776883
0.37425485 0.15034688 0.44552711
-0.1236976 0.0074987747 0.45961535
0.068015799 0.0067743473 0.46173367
0.090163998 0.0053021684 0.4598138
0.10376852 0.0073021837 0.46732295
0.12740934 0.0060752071 0.46483403
0.14984414 0.0066248961 0.46274132
0.17243138 0.0065218955 0.46053115
-0.34238258 0.023633946 0.47123909
-0.32967243 0.022286132 0.46907851
-0.30518779 0.020429738 0.46842393
-0.29295161 0.020409402 0.47368959
-0.27281433 0.017867438 0.46965647
-0.26611438 0.024118759 0.47299317
-0.24535352 0.017534941 0.46637106
-0.22259811 0.014798421 0.46574944
-0.19962287 0.01421845 0.46577114
-0.17698672 0.015143011 0.4658421
-0.16181089 0.016515736 0.46848914
-0.14432403 0.010526828 0.46613187
-0.13635075 0.016595867 0.46525452
-0.11485311 0.015240785 0.46686789
-0.092211977 0.015804112 0.46610355
-0.082965933 0.011049274 0.45948222
-0.066836424 0.013940256 0.46564063
-0.042443052 0.014695305 0.46602604
-0.027535837 0.010460678 0.46497571
-0.018282078 0.013962179 0.46350098
0.0023422213 0.012851376 0.46346346
0.024069179 0.013501886 0.46457765
0.032023799 0.011874482 0.46505374
0.051241197 0.012990475 0.46490794
0.073637076 0.014725287 0.46452886
0.082815684 0.010801751 0.46801582
0.099945262 0.015011631 0.46575153
0.12251112 0.010306668 0.46259403
0.13082242 0.013278045 0.47241333
0.14730527 0.013558507 0.46429056
0.16188785 0.010977987 0.46609497
0.18120542 0.01298986 0.46595144
0.19861265 0.01216222 0.46417022
0.21308123 0.013218932 0.45965177
0.22940774 0.013841141 0.46894434
0.25146082 0.015873466 0.46372616
0.26369646 0.01277557 0.46657997
0.27937087 0.017715927 0.468218
0.29980612 0.018834174 0.47091785
0.3158381 0.018765293 0.46902844
0.3289867 0.022822004 0.47450641
0.3453536 0.019684091 0.46831357
0.36135942 0.017449558 0.4630093
0.37931794 0.023644235 0.46220633
-0.36382797 0.032950312 0.46428961
-0.34548831 0.029209746 0.4651714
-0.32693759 0.026517304 0.47067761
-0.30970296 0.025048204 0.47050536
-0.28831109 0.026413998 0.47256267
0.34235173 0.024577405 0.46870264
0.36373085 0.028307682 0.4667564
0.38455287 0.037520707 0.47034678
-0.3796477 0.052168563 0.46638319
-0.36442575 0.04185098 0.47459099
0.37753066 0.041940294 0.45977825
0.39112487 0.050076712 0.46412241
-0.39128384 0.068680942 0.4753083
0.38286281 0.065586731 0.46237934
0.39801994 0.069434963 0.47513676
0.38564596 0.089255765 0.4637368
0.39513221 0.077483296 0.46552536
0.38752544 0.10499164 0.4646537
0.39746207 0.098177679 0.46513987
0.38475925 0.11889128 0.46571037
0.39546189 0.11579439 0.45938432
0.37255153 0.13541047 0.46527642
0.39381546 0.13154769 0.46410462
0.35672599 0.14334743 0.46560243
0.3905426 0.13964342 0.45987579
0.37813717 0.15875547 0.46654081
0.3601293 0.18495733 0.46977255
-0.32062346 0.20515031 0.47150233
0.35113356 0.20484541 0.47289336
0.36693925 0.20204777 0.47198704
-0.32358724 0.220985 0.47289255
-0.32614252 0.23682487 0.47409117
-0.31175217 0.22766304 0.47383371
-0.3564519 0.31696206 0.46966851
-0.34177053 0.31480622 0.46951693
-0.34639102 0.023067888 0.47799936
-0.32176968 0.020029839 0.47616509
-0.30714297 0.023784671 0.48796695
-0.27986816 0.023379926 0.48536733
-0.26049772 0.021871682 0.48357096
-0.24308741 0.019892674 0.48266089
-0.22121124 0.017825738 0.47784567
-0.21700183 0.019184873 0.48746699
-0.19664492 0.016986206 0.47950876
-0.18596168 0.018422715 0.47763497
-0.16800092 0.01809039 0.47997463
-0.1474047 0.017107975 0.47902864
-0.12820105 0.01983178 0.48462191
